ncols        312
nrows        25
xllcorner    89.185
yllcorner    23.665
cellsize     0.005000000000
NODATA_value  -9999
12.494999885559082031 12.659999847412109375 13 15 13 13 12 11.659999847412109375 11.824999809265136719 11.659999847412109375 11.494999885559082031 13 11 11 12.74250030517578125 12.494999885559082031 13.494999885559082031 14 2.9872057437896728516 16 15 9.74250030517578125 12 11.494999885559082031 12 11.494999885559082031 11.659999847412109375 11.659999847412109375 12 12.494999885559082031 14 12.494999885559082031 13 12.329999923706054688 12.329999923706054688 12.494999885559082031 11.659999847412109375 11.329999923706054688 11 11 13 13 12 10.659999847412109375 12 14 15 15 14 12.659999847412109375 13 14 11 12 13 9.4499998092651367188 11 12 12.494999885559082031 13 10 11 14 11.659999847412109375 11.329999923706054688 11 6.79199981689453125 12 13 11.329999923706054688 14 15 16 14 13 13 12.494999885559082031 12.494999885559082031 11 8.2474994659423828125 8.371250152587890625 12.659999847412109375 12.659999847412109375 12.247499465942382812 13 12 11 12 7 11 12 12 11 10 10 11 10 11 11 10 10 11 11.329999923706054688 7 12 12 11.494999885559082031 11.494999885559082031 11.494999885559082031 11 10.494999885559082031 10.282856941223144531 12.494999885559082031 11.494999885559082031 11 10 11 10 8 7 1.6580239534378051758 1.652095794677734375 1.652095794677734375 1.646167755126953125 1.646167755126953125 1.6402394771575927734 10 10 11 12 7 7.4949998855590820312 10 11 12 10 8.395999908447265625 8.1979999542236328125 8.4949998855590820312 8 10 10.659999847412109375 11 9.4949998855590820312 9 5.9541301727294921875 5.9182605743408203125 5.8823909759521484375 5.8465213775634765625 7 9 9 5.6313042640686035156 8 8.4949998855590820312 10 9 7.2474999427795410156 10 10 8.4949998855590820312 8 6 8 5.3299999237060546875 5.1649999618530273438 5 4.9860396385192871094 10 8.2474994659423828125 8.3299999237060546875 8.659999847412109375 8 8 8 9 12 11 9.74250030517578125 10 8 7.7424998283386230469 7.7424998283386230469 9 9.4949998855590820312 8.4949998855590820312 8.4949998855590820312 9 9.4949998855590820312 10 8.84857177734375 8.84857177734375 9 8.424285888671875 9.659999847412109375 11 9.4949998855590820312 9.2474994659423828125 9.4949998855590820312 8.79199981689453125 8.6929998397827148438 8.79199981689453125 8 8 7 9.4949998855590820312 9 9 8.4949998855590820312 8 6.4949998855590820312 3.6988234519958496094 7 9 9.3299999237060546875 9.659999847412109375 8.7071428298950195312 8.84857177734375 8.84857177734375 6.659999847412109375 4.5939998626708984375 4.395999908447265625 4.1979999542236328125 4 2.2353279590606689453 7 2.6045491695404052734 5 9 10 9 12 12 12.329999923706054688 13 13 12 9.4949998855590820312 11 11.74250030517578125 15 15 15 14 12.494999885559082031 11.494999885559082031 16 12.395999908447265625 11 10 7 5.2474999427795410156 9 5.4949998855590820312 5.2474999427795410156 5.395999908447265625 6.4949998855590820312 6 5 3.6600000858306884766 6 9 7.659999847412109375 8 7.4949998855590820312 7 4 2.6128571033477783203 12 10 9 10 10 6.395999908447265625 10 10 7 7.1979999542236328125 5.1979999542236328125 5.395999908447265625 5.5939998626708984375 7 8 10 10 10 10.494999885559082031 9.74250030517578125 11 8.4949998855590820312 8 9 10.494999885559082031 10 10 7 10 9.4949998855590820312 9 9 8.659999847412109375 8.4949998855590820312 8.659999847412109375 9 9 9 8 8.4949998855590820312 8 1.0337500572204589844 1.0337500572204589844 1.0337500572204589844
12.74250030517578125 13 12.824999809265136719 15 14 14 13 13 12 13 13 11.329999923706054688 11.164999961853027344 12.742499351501464844 12.494999885559082031 12.247499465942382812 13 13 2.9871323108673095703 13 15 9.8662500381469726562 11 11.247499465942382812 13 12 11.329999923706054688 12 12.494999885559082031 13 12 13 12 11.494999885559082031 12 12.659999847412109375 11.659999847412109375 11.329999923706054688 11 9 10 9 10 10.329999923706054688 11 13 15 15 13 12.329999923706054688 13 14 15 12.494999885559082031 12 11 9.3599996566772460938 9.2699995040893554688 13 12 9 8.659999847412109375 11 13 12 12 6.79199981689453125 12 13 11.659999847412109375 13.494999885559082031 13 12 11 10.659999847412109375 10.494999885559082031 10.329999923706054688 10.164999961853027344 11 8.6187496185302734375 8.4949998855590820312 13 12.618749618530273438 12.494999885559082031 12.494999885559082031 12.247499465942382812 11.247499465942382812 12 12 7.3299999237060546875 12 11.494999885559082031 11 10.494999885559082031 10.494999885559082031 11 12 11 11.494999885559082031 11.494999885559082031 10.494999885559082031 11.494999885559082031 12 11.659999847412109375 7.0707144737243652344 11 12 12 12 12 11 10.424285888671875 12 11.494999885559082031 11 11 11.329999923706054688 10.329999923706054688 10 8 1.652095794677734375 1.652095794677734375 1.646167755126953125 1.646167755126953125 1.6402394771575927734 1.6343114376068115234 1.6224551200866699219 8 1.9267663955688476562 5 5.4949998855590820312 9 9.4949998855590820312 13 10.494999885559082031 11 8.5939998626708984375 9 9 10 10.329999923706054688 11 10 9.2474994659423828125 10 9 10 11 5.8106517791748046875 5.7747821807861328125 5.7389130592346191406 5.7030434608459472656 5.6671738624572753906 8.4949998855590820312 9.4949998855590820312 7.7424998283386230469 7.4949998855590820312 9 8.3299999237060546875 8 6.4949998855590820312 6.3299999237060546875 6.1649999618530273438 5.4949998855590820312 8 8 10 4.9860396385192871094 8 10 9.4949998855590820312 8.659999847412109375 8.3299999237060546875 7.4949998855590820312 7.659999847412109375 8 11 11 10 9 8.4949998855590820312 9 8.74250030517578125 9.4949998855590820312 9.2474994659423828125 9.74250030517578125 8.8249998092651367188 8.659999847412109375 9 9 9 8.7071428298950195312 8.5657138824462890625 10 10 10.329999923706054688 9.74250030517578125 9.659999847412109375 9.4949998855590820312 8.8909997940063476562 9 8 8 6.4949998855590820312 9 8 8 8 9 8 3.6697058677673339844 6 9 7.1979999542236328125 11 10 9 9 8 6.3299999237060546875 6 7.7424998283386230469 7 7.3299999237060546875 7 2.2272131443023681641 5 5 5.4949998855590820312 7 9 8 8 11 12 13 6.4949998855590820312 9 11.329999923706054688 11.659999847412109375 14 15 16 15 12 11.494999885559082031 16 12.197999954223632812 11 8 5 5 5 5.4949998855590820312 5 6 5.1979999542236328125 7.4949998855590820312 3.4949998855590820312 8 6 8 9 7.3299999237060546875 6.4949998855590820312 6 2.5657143592834472656 12 10.494999885559082031 13 9.3299999237060546875 9.659999847412109375 7 6.4949998855590820312 9 9 9.4949998855590820312 7.395999908447265625 7.5939998626708984375 7.79199981689453125 8 8 7.4949998855590820312 9 9.4949998855590820312 11 10 9.4949998855590820312 10 11 10 7 10 9 9 5.9317646026611328125 9 8 8.89571380615234375 8.8014287948608398438 8.8249998092651367188 8.659999847412109375 8.3299999237060546875 8 8 7.659999847412109375 7.3299999237060546875 7 10 1.0225000381469726562 1.0225000381469726562 1.0225000381469726562
13 12.824999809265136719 13 13.494999885559082031 15 13 12.494999885559082031 11.659999847412109375 11.329999923706054688 14 12.659999847412109375 14 14 14 14 14 12 2.9870588779449462891 10 13 16 12 12 13 10 11 12.494999885559082031 13 11 10 10.329999923706054688 10.659999847412109375 11 12 13 13 12.494999885559082031 13 11.494999885559082031 12 8.9349994659423828125 10 11 12 11 12 14 14 11.494999885559082031 12 12 13 14 13 11.494999885559082031 11 11 10 9.18000030517578125 9.090000152587890625 11 13 8.3299999237060546875 8 11 6.8909997940063476562 11 11 11.329999923706054688 12 13 13 10.824999809265136719 11.659999847412109375 11.329999923706054688 11 10.494999885559082031 10 8.8662500381469726562 8.74250030517578125 10 12 13 12.74250030517578125 12.74250030517578125 12.494999885559082031 11.494999885559082031 15 12.494999885559082031 7.659999847412109375 11 12 14.494999885559082031 14 14 13 13 13 14 14 12.494999885559082031 13 12 10.494999885559082031 10 7.1414284706115722656 10 10.329999923706054688 10.659999847412109375 11 12 10.565713882446289062 10.707142829895019531 12 11.494999885559082031 12 11.659999847412109375 10.659999847412109375 10.247499465942382812 10 9 5 1.6402394771575927734 1.6402394771575927734 1.6343114376068115234 1.6224551200866699219 1.6224551200866699219 1.6105988025665283203 1.8635329008102416992 11 11 10 10.494999885559082031 12.494999885559082031 12 9 8.79199981689453125 9.3299999237060546875 9 12 10.494999885559082031 10 9.4949998855590820312 10 9.1414289474487304688 11 11 9 10 11 10 9 10 11 9.4949998855590820312 9 8 10 8.659999847412109375 7 6.659999847412109375 7 5.659999847412109375 9 9 12 6 4.9820799827575683594 12 12.494999885559082031 9 11 8 7 7.3299999237060546875 8.4949998855590820312 9.4949998855590820312 10 9 8 9 8.2474994659423828125 8.4949998855590820312 9 8.659999847412109375 10.494999885559082031 10 8.3299999237060546875 8.4949998855590820312 9 8.84857177734375 8.6929998397827148438 9 9 11 10.659999847412109375 11 9.8249998092651367188 9 8.659999847412109375 8 7.4949998855590820312 7 6.659999847412109375 6 4 6 9 9 8 3.6405882835388183594 7 9 7.395999908447265625 9 9 9.4949998855590820312 8 6.659999847412109375 6.3299999237060546875 7.8249998092651367188 7.659999847412109375 7.7424998283386230469 7.659999847412109375 9 8 2.2190983295440673828 2.2109835147857666016 5 5.4949998855590820312 5 5.4949998855590820312 2.7851023674011230469 3 5 6 12 12.494999885559082031 13 13 14 15 13.494999885559082031 14 13 11 14 12 11 10 6 2.74755096435546875 2.7071428298950195312 5 2.6263265609741210938 2.585918426513671875 5 7 3.3299999237060546875 7 8 9 7.4949998855590820312 7.2474999427795410156 7 2.5185713768005371094 9 11 10 11 12 9.659999847412109375 9 8 6.5939998626708984375 8 8.4949998855590820312 8 7.5939998626708984375 7.79199981689453125 8 9 10 9.4949998855590820312 10 10.494999885559082031 10 9.2474994659423828125 9.3299999237060546875 9.659999847412109375 9 8 6.8662500381469726562 8 9 5.8735294342041015625 8 7 9 8.659999847412109375 8.7071428298950195312 10 9 8 7.79199981689453125 7.5939998626708984375 9 7 1 1 1.0112500190734863281 1.0112500190734863281
12.494999885559082031 12.659999847412109375 13.494999885559082031 13.494999885559082031 16 15 12 13 12 11 12.329999923706054688 12 13 2.9835295677185058594 2.9867646694183349609 2.9867646694183349609 2.986911773681640625 2.9869852066040039062 10.164999961853027344 14 17 14 14 12.494999885559082031 9.8800001144409179688 12 11.494999885559082031 14 8.8909997940063476562 12 12.494999885559082031 13 14 12.494999885559082031 12 12 12 12 11 8.8800001144409179688 11 10.329999923706054688 10.247499465942382812 10.433124542236328125 10.618749618530273438 10.80437469482421875 12 13 11 10.494999885559082031 12 12 13 13.494999885559082031 14 12 12 11 11 12 11.494999885559082031 11.494999885559082031 14 12 6.9404997825622558594 13 12 11.329999923706054688 11.659999847412109375 11.659999847412109375 11.659999847412109375 13 12 10.74250030517578125 10.494999885559082031 10.247499465942382812 10 11 10 10.494999885559082031 11 11 12 14 13 13 11.74250030517578125 14.494999885559082031 14 12 11 15 16 16.494998931884765625 16 14 12 11.659999847412109375 12 12.494999885559082031 12 11 12 12.494999885559082031 12 7.2121429443359375 12 11 11 11 12 11 10.84857177734375 10.84857177734375 11 12.494999885559082031 12 10.74250030517578125 10.494999885559082031 10 3 1.8734132051467895508 1.6402394771575927734 1.6402394771575927734 1.6283832788467407227 1.6224551200866699219 1.6105988025665283203 1.6105988025665283203 1.6046706438064575195 9 8 8.4949998855590820312 11 11 10 9.4949998855590820312 9.659999847412109375 11 12 12 11 9.74250030517578125 12 10.494999885559082031 9.2828569412231445312 12 12 11.659999847412109375 12 10.494999885559082031 12 9.4949998855590820312 8.8249998092651367188 9.4949998855590820312 9 8.3299999237060546875 9 7 6.8249998092651367188 6.659999847412109375 6.3299999237060546875 6 5.8249998092651367188 11 12 6.1979999542236328125 4.9781198501586914062 10 10.494999885559082031 10 4.9503998756408691406 4.9503998756408691406 5 7 8 8.4949998855590820312 9 9 7 9 8 9 10.494999885559082031 8 8.3299999237060546875 9 9 7.659999847412109375 8.1649999618530273438 10 10 8.395999908447265625 8.5939998626708984375 8.79199981689453125 8.84149932861328125 11 12 10 10 10 8.3299999237060546875 8 10 6.3299999237060546875 8 7 3.9366176128387451172 8 9 3.6114706993103027344 3.6905043125152587891 7 9.4949998855590820312 7.5939998626708984375 8 11 9.4949998855590820312 7 9 8.659999847412109375 8.3299999237060546875 8 7.4949998855590820312 9 9 8.7699995040893554688 6 2.2028689384460449219 5 4 4.4949998855590820312 2.5802049636840820312 7 10 14 14.329999923706054688 14 13 13.197999954223632812 13.329999923706054688 13.659999847412109375 14 13 12.494999885559082031 12 10 5 4 2.8687753677368164062 2.8283672332763671875 2.7879590988159179688 6 3 2.6667346954345703125 4 3 2.5455100536346435547 6 3.1649999618530273438 7 8 9 7.7424998283386230469 7 8 2.4714286327362060547 10 7 7.4949998855590820312 9 9 4.7424998283386230469 4.8662500381469726562 7 8.4949998855590820312 6.6929998397827148438 8 9 7.79199981689453125 9 10 10 8.5939998626708984375 9 8 8.659999847412109375 8.659999847412109375 9 9.3299999237060546875 9.659999847412109375 10 9 6.7424998283386230469 10 10 9 5.8152937889099121094 5.7570586204528808594 8.4949998855590820312 8.3299999237060546875 8.6128568649291992188 9.4949998855590820312 8.3299999237060546875 9 7.6929998397827148438 7.395999908447265625 7.1979999542236328125 9 0.98310828208923339844 0.98310828208923339844 0.98310828208923339844 0.97966235876083374023
13 13.494999885559082031 14 13 15 15.494999885559082031 13 11.329999923706054688 11 9.659999847412109375 9.3299999237060546875 9 2.9770588874816894531 2.9802942276000976562 13 12 10 11 10.329999923706054688 12 15 15 15 15 9.7699995040893554688 11 11.494999885559082031 8.79199981689453125 8.6929998397827148438 13 13 12 10.801428794860839844 10.89571380615234375 11 10.494999885559082031 10 10 8.8249998092651367188 12 11.494999885559082031 12 10.659999847412109375 10.494999885559082031 10.74250030517578125 11 11.494999885559082031 12 10 13 13 12.494999885559082031 11.74250030517578125 15 17 16 15 13 14 15 14 14 14 13 12 12 13 12.494999885559082031 12 12 11.329999923706054688 11 12 14 11.494999885559082031 12 12 13 11.494999885559082031 11 9.659999847412109375 9.4949998855590820312 9.659999847412109375 14 10.659999847412109375 10.494999885559082031 11 14 14 12 11.247499465942382812 14.494999885559082031 14.494999885559082031 16 14 12 13 11.659999847412109375 11.329999923706054688 11 10 9 7.8839282989501953125 12 13 12 7.2828569412231445312 12 11.659999847412109375 11.329999923706054688 12.494999885559082031 11 11 11.494999885559082031 10.79199981689453125 10.593999862670898438 12 11 6 4 11 10 1.6402394771575927734 1.6283832788467407227 1.6224551200866699219 1.6165269613265991211 1.6105988025665283203 1.6046706438064575195 1.6046706438064575195 1.6046706438064575195 7 10 9.4949998855590820312 8.4949998855590820312 11.494999885559082031 11 13 11.659999847412109375 12 10.659999847412109375 10.494999885559082031 10.494999885559082031 10.494999885559082031 11 9.424285888671875 10 11 11.329999923706054688 11 9.4949998855590820312 11 9 8.659999847412109375 9.4949998855590820312 9 8.659999847412109375 9.4949998855590820312 7 6.8249998092651367188 6.659999847412109375 6.1649999618530273438 6 11 10 6.5939998626708984375 6.395999908447265625 4.9741597175598144531 4.9741597175598144531 11 4.9583196640014648438 10 4.9107999801635742188 4.9305996894836425781 8 4.7128000259399414062 4.6731996536254882812 4.6335997581481933594 4.79199981689453125 7 7.4949998855590820312 8 7 10 7.659999847412109375 7.7259998321533203125 7.8579998016357421875 7.3299999237060546875 8 10.494999885559082031 12 9 8.1979999542236328125 8.5445003509521484375 8.6929998397827148438 9 12 10 10 9 8.79199981689453125 9 9 8.1979999542236328125 8 6 3.8832354545593261719 6 8 3.5823528766632080078 8 3.7404201030731201172 7.4949998855590820312 8 8.4949998855590820312 7.79199981689453125 9 9.2474994659423828125 9.74250030517578125 9 10 8 7.3299999237060546875 9 9 8.659999847412109375 8.5500001907348632812 7 5 2.1947541236877441406 2.1866393089294433594 2.1785244941711425781 2.3753075599670410156 6 7 13 15 14.659999847412109375 15 13.395999908447265625 17 15 15 15 14 12 6 2.9495918750762939453 2.9091837406158447266 13 9 6 3.4949998855590820312 4 4.659999847412109375 4.3299999237060546875 5 5 2.5051019191741943359 3 7.3299999237060546875 7.659999847412109375 6.7699999809265136719 7.4949998855590820312 7 2.4242856502532958984 8 4.1237497329711914062 4.2474999427795410156 4.371250152587890625 4.4949998855590820312 4.6187496185302734375 4.7424998283386230469 7 8 7.1237497329711914062 7.2474999427795410156 6.79199981689453125 7 7.4949998855590820312 9 9 8.79199981689453125 9 8.395999908447265625 8.1979999542236328125 8 8.3299999237060546875 9 10 10 9 8.659999847412109375 6.6187496185302734375 8 8.4949998855590820312 8.659999847412109375 9 5.6988234519958496094 8 8 8.5185708999633789062 8.659999847412109375 8.659999847412109375 10 8 8.4949998855590820312 9 7 0.97621643543243408203 0.97621643543243408203 0.97621649503707885742 0.97621649503707885742
11.79199981689453125 12 14 12 14 14 12 11.659999847412109375 12 12 13 13 2.97382354736328125 12 13.494999885559082031 13 10.329999923706054688 10.659999847412109375 10.494999885559082031 12.494999885559082031 13 14 9.4399995803833007812 9.5500001907348632812 9.659999847412109375 11.74250030517578125 13 14 8.5939998626708984375 10.866250038146972656 13 10.707142829895019531 10.84857177734375 11 11.494999885559082031 12 12 9 8.7699995040893554688 9 12 12.494999885559082031 11 11 11.494999885559082031 13 11 8.74250030517578125 12 11.494999885559082031 11 12 11.494999885559082031 14 16 13.494999885559082031 14 15 15 15 12.659999847412109375 12.329999923706054688 12 11.74250030517578125 11.494999885559082031 11.247499465942382812 11 10.494999885559082031 10 12 11.494999885559082031 13 10.659999847412109375 10 11 12.494999885559082031 11 10.74250030517578125 13 11 9.3299999237060546875 9 9.3299999237060546875 12 10.329999923706054688 10 10 12 14 13 11.494999885559082031 14 15.494999885559082031 15 12 10.494999885559082031 12.494999885559082031 13 10 9.659999847412109375 9.3299999237060546875 9 7.7778568267822265625 7.6717853546142578125 7.5657143592834472656 7.4596428871154785156 7.3535714149475097656 16 13 11 10.494999885559082031 11 12 12 12 11 10.395999908447265625 10.197999954223632812 10 12 11.494999885559082031 11 9 1.6224551200866699219 1.6165269613265991211 1.6105988025665283203 1.6046706438064575195 1.6046706438064575195 1.6046706438064575195 1.5987424850463867188 1.5928144454956054688 9 8 9 11 11 11.329999923706054688 11.659999847412109375 12 10.329999923706054688 11 10 12 12 9.5657138824462890625 9.7071428298950195312 9.84857177734375 13 11 9 10 8.4949998855590820312 9 10 9 8.4949998855590820312 9 7.4949998855590820312 8 6.4949998855590820312 6.3299999237060546875 7.659999847412109375 7.3299999237060546875 7 6.79199981689453125 9 13 4.9701995849609375 4.96623992919921875 4.9622797966003417969 12 4.8711996078491210938 4.8711996078491210938 10 4.7523999214172363281 13 12 4.5939998626708984375 9 11 6 8 7.3299999237060546875 7.4619998931884765625 7.5939998626708984375 8 7 10 10 13 8 8.4949998855590820312 8.74250030517578125 10 10 10 12 9.659999847412109375 9.3299999237060546875 9 8.5939998626708984375 8.395999908447265625 10.494999885559082031 10 3.7764706611633300781 7 9 3.5532352924346923828 7 8 3.7903361320495605469 7 8 7.4949998855590820312 8 8 9.4949998855590820312 11 11 9 8.74250030517578125 9 7.1649999618530273438 9 8.3299999237060546875 8.4949998855590820312 6 5 5 4 5 2.1704099178314208984 6 7.4949998855590820312 13.494999885559082031 18 17 16 13.593999862670898438 14 16 16 14.494999885559082031 14 6.659999847412109375 6.3299999237060546875 14 12.494999885559082031 12 8.2474994659423828125 8 7 5 6 6.4949998855590820312 6 7 7 2.4646937847137451172 7 6 6.4949998855590820312 6.5499997138977050781 8 2.3771429061889648438 4 10 10 8 8 8 4.8662495613098144531 6 6.4949998855590820312 7 7.4949998855590820312 7.371250152587890625 6.8909997940063476562 7.4949998855590820312 9 11 9.659999847412109375 9.3299999237060546875 9 8 9 7.4949998855590820312 8 10 9 8.3299999237060546875 8.4949998855590820312 8 6.4949998855590820312 9 9 8.3299999237060546875 10 5.6405882835388183594 8 8.424285888671875 8.659999847412109375 9 9 7.8249998092651367188 7.659999847412109375 8 0.962432861328125 0.962432861328125 0.96932470798492431641 0.96932470798492431641 6
11.593999862670898438 12.494999885559082031 13 11.79199981689453125 13 14.494999885559082031 12.659999847412109375 12 11.329999923706054688 11 10.494999885559082031 10 2.9705882072448730469 2.9673528671264648438 11 13 11 11 10.659999847412109375 13 12 12 9.3299999237060546875 14 11.494999885559082031 14 8.395999908447265625 8.4949998855590820312 11 10.74250030517578125 12 10.565713882446289062 11 11.494999885559082031 11 11.494999885559082031 8.659999847412109375 8.715000152587890625 10 10.494999885559082031 13 13 12 11 11 11 10 8.4949998855590820312 12 11 10 12 11.247499465942382812 12 12 13 12 12 12.659999847412109375 14 14 14 13 12 13 11.494999885559082031 11 10 12 12 11 12 10.329999923706054688 10 11 12 11 10.494999885559082031 12 11 9 9 10 13 13 10 10 12 14 12 11.74250030517578125 14 16 16 11 10 12 14 10 9.7071428298950195312 9.5657138824462890625 9.424285888671875 9.2828569412231445312 9.1414289474487304688 9 7.424285888671875 13 13 12 13.494999885559082031 12 10 12.659999847412109375 12.329999923706054688 12 11.494999885559082031 11 11 11.494999885559082031 13 11 10 9.4949998855590820312 10 1.6105988025665283203 1.6046706438064575195 1.6046706438064575195 1.5987424850463867188 1.5987424850463867188 1.5928144454956054688 1.5928144454956054688 1.5868861675262451172 1.5868861675262451172 10 10 10 10 10.494999885559082031 9.659999847412109375 10 13 10.494999885559082031 8 8 10 10 10.494999885559082031 14 10 8.79199981689453125 8.5939998626708984375 8.6929998397827148438 8.3299999237060546875 9 10.494999885559082031 8 10 9 10 11 9 8 11 8 7 13 13 5 10 8 10 12 4.8315997123718261719 4.79199981689453125 9 9.2474994659423828125 9.4949998855590820312 10 4.5543999671936035156 4.5148000717163085938 9 9 12 11 10 8 6 7 9 11 6.659999847412109375 8.74250030517578125 8.4949998855590820312 7.7071428298950195312 7.8485713005065917969 8 11 8 10 10 10 10 8 8 3.7764706611633300781 7 3.5241177082061767578 7 7.4949998855590820312 8 9 3.8402521610260009766 7 7 3.9400839805603027344 7 8.659999847412109375 8.3299999237060546875 8 8.659999847412109375 8.4949998855590820312 9 9 7 8 8 8.4949998855590820312 7 5.4949998855590820312 4 5 2.1622951030731201172 5 5.4949998855590820312 10 17 18 17 13.79199981689453125 17 18 16 14 11.494999885559082031 11 13.494999885559082031 13 10 8.74250030517578125 8.4949998855590820312 9 9 5.4949998855590820312 7 8 6.4949998855590820312 6 6 2.4242856502532958984 6 8 7 6.659999847412109375 6.3299999237060546875 6 2.3299999237060546875 8 8.3299999237060546875 8.659999847412109375 8.4949998855590820312 7.1649999618530273438 7 6.2474999427795410156 7 6.7424998283386230469 7.4949998855590820312 7.6806249618530273438 7.4949998855590820312 7 8 8.4949998855590820312 8.424285888671875 8.5657138824462890625 8.7071428298950195312 9.395999908447265625 9.1979999542236328125 9.4949998855590820312 7 7 9 8 6.2474999427795410156 6.371250152587890625 8 9 9 9 8 5.5823526382446289062 8 8.3299999237060546875 8.3299999237060546875 9 8 7.659999847412109375 7.4949998855590820312 8 0.95554113388061523438 0.95554113388061523438 0.95554113388061523438 6 5
13 13 11.593999862670898438 12 12.74250030517578125 15 12.329999923706054688 11.659999847412109375 12.494999885559082031 12 12 8 13 2.9673528671264648438 2.9641177654266357422 2.9608824253082275391 13 13 10.824999809265136719 11.74250030517578125 12 11 9.2200002670288085938 11.247499465942382812 13 14 8.2969999313354492188 14 14 10.618749618530273438 13 10.424285888671875 13 13 12 8.5500001907348632812 8.604999542236328125 12 12 12 12 10.659999847412109375 11 11.494999885559082031 10.494999885559082031 10.494999885559082031 10 12 8.2474994659423828125 8 7.7424998283386230469 9 11 10 12 11 11 12 12.329999923706054688 11.74250030517578125 11.494999885559082031 14 13 13.494999885559082031 12 14 14 11 8.8249998092651367188 8.659999847412109375 8.4949998855590820312 10 11 8.659999847412109375 10 10 10 10.247499465942382812 10.494999885559082031 12 6.6269998550415039062 6.8084998130798339844 12 12 12 9.4949998855590820312 10 12 14 13.494999885559082031 14 16 16 13.494999885559082031 10 9 11 13 9.84857177734375 11 10.494999885559082031 10 7.6364283561706542969 7.5657143592834472656 7.4949998855590820312 8 13 13 11 13 13 10 9.4949998855590820312 11 13 11.494999885559082031 11 13 11.74250030517578125 11.247499465942382812 12 11 10 10.494999885559082031 10 1.6046706438064575195 1.5987424850463867188 1.5987424850463867188 1.5928144454956054688 1.5928144454956054688 1.5868861675262451172 1.5868861675262451172 1.5809581279754638672 1.5750299692153930664 8 9 10 10.494999885559082031 9.3299999237060546875 9.4949998855590820312 10 5 6 5.3299999237060546875 7 7.4949998855590820312 11 13 13 12 9 8.395999908447265625 9 8.1649999618530273438 10 7.7424998283386230469 8 10 10.494999885559082031 11 8.4949998855590820312 8.2474994659423828125 10 7.4949998855590820312 8 5.4949998855590820312 5.2474999427795410156 12 9 8.2474994659423828125 10.494999885559082031 11 10 11 11 10 5.395999908447265625 9.74250030517578125 5 4.4751996994018554688 4.4355998039245605469 9 9.4949998855590820312 11 9 8 4.6731996536254882812 8 8.4949998855590820312 10 6.3299999237060546875 8 8.2474994659423828125 7.5657143592834472656 8 9 8 7 6.7424998283386230469 6.4949998855590820312 6.2474999427795410156 6 3.7764706611633300781 6 3.5629410743713378906 3.4658823013305664062 3.4949998855590820312 7 8 8.3299999237060546875 8.659999847412109375 11 3.8901681900024414062 3.9400839805603027344 8 10 10 9 7.659999847412109375 10 8.3299999237060546875 8.2474994659423828125 8 5 7 8 8 8 7 4 2.1541802883148193359 5 4 4.4949998855590820312 7 13 17 17 16 16 15.659999847412109375 15.329999923706054688 12.494999885559082031 12 15 14 15 14 10 12 9.4949998855590820312 9 7 6.7424998283386230469 6.4949998855590820312 6.2474999427795410156 6 5.4949998855590820312 5 2.3838775157928466797 8 7 6.659999847412109375 6.5499997138977050781 7 2.2828571796417236328 6 6.1414284706115722656 6.2828569412231445312 6 7 7.3299999237060546875 7.4949998855590820312 8 7 8 9 7.6187496185302734375 7.7424998283386230469 8 8.1414289474487304688 8.2828569412231445312 9 8.84857177734375 9.79199981689453125 9.5939998626708984375 10 10 6 9 6.1237497329711914062 8 9 7.79199981689453125 8 8.74250030517578125 9 5.5241174697875976562 8 8.4949998855590820312 8 10 8.4949998855590820312 7.659999847412109375 7.3299999237060546875 7.3299999237060546875 0.94175744056701660156 0.94864928722381591797 0.94864928722381591797 0.95554113388061523438 9 5.3299999237060546875
14 12 11.395999908447265625 12.247499465942382812 12.494999885559082031 13 13.494999885559082031 14 12.494999885559082031 12.247499465942382812 12 9 9.2474994659423828125 14 13 13 2.9576470851898193359 14 12 12 11.494999885559082031 12.494999885559082031 9.1099996566772460938 11 13 8.1979999542236328125 14 13 10.371250152587890625 10.494999885559082031 14 10.282856941223144531 12.494999885559082031 8.4399995803833007812 8.4949998855590820312 12 10 10.494999885559082031 12 10 10.329999923706054688 11 11.494999885559082031 11.494999885559082031 11 11 14 13 11 11 7.4949998855590820312 11 11 9 12 10 10 11 12 12 11.247499465942382812 11 12 13 11.79199981689453125 11.593999862670898438 11.395999908447265625 11.197999954223632812 12 13 10 8.3299999237060546875 10 11 8.3299999237060546875 10.494999885559082031 9 10 11 6.395999908447265625 6.4454998970031738281 6.4949998855590820312 6.5444998741149902344 10 12 9 10 11.494999885559082031 13 13.494999885559082031 15 14 16 13 9.659999847412109375 9 10 13 9 9.4949998855590820312 9 7.7778568267822265625 7.7071428298950195312 11 8.3299999237060546875 12 13.494999885559082031 10.79199981689453125 10.593999862670898438 10.395999908447265625 10.197999954223632812 10 9 10 12 11 10.659999847412109375 12 10 11 11.494999885559082031 12 10.494999885559082031 11 9 9 1.5987424850463867188 1.5928144454956054688 1.5928144454956054688 1.5928144454956054688 1.5868861675262451172 1.5809581279754638672 1.5750299692153930664 1.5750299692153930664 1.5691018104553222656 1.5631736516952514648 5 8 9 10 9 10 5 5.3299999237060546875 5.659999847412109375 5.659999847412109375 11 13 12 9.659999847412109375 9.3299999237060546875 8.1979999542236328125 8 8 7.2474999427795410156 7.4949998855590820312 10.494999885559082031 10 9 8.74250030517578125 9.4949998855590820312 9 9 8.659999847412109375 8.3299999237060546875 5.7424998283386230469 6 11 13 8.4949998855590820312 12 11 11 9 9 5.5939998626708984375 7 5.1979999542236328125 7 9 4.395999908447265625 4.3564000129699707031 9.4949998855590820312 11 9 7.4949998855590820312 7 4.3564000129699707031 8 10 6 9 7.2828569412231445312 7.424285888671875 8.659999847412109375 7.8249998092651367188 8 7.659999847412109375 7.3299999237060546875 7 7.4949998855590820312 6.659999847412109375 7 3.5629410743713378906 3.4076471328735351562 3.4367647171020507812 7 7.4949998855590820312 8 8.4949998855590820312 8.659999847412109375 7.659999847412109375 8 9 7 8 8 7 7.3299999237060546875 9 8.4949998855590820312 8 2.7583818435668945312 7 4 8 7.4949998855590820312 8 6.4949998855590820312 6 5 2.1460654735565185547 6 4.4949998855590820312 5 8 15 17 17 16.494998931884765625 17 15 18 18 18 16 15 14.494999885559082031 14 13 12 10 9.4949998855590820312 9 7 6.4949998855590820312 6.4949998855590820312 6 5 3 2.3434693813323974609 7 8 6.7699999809265136719 9 2.2357141971588134766 11 9 7 6.424285888671875 8 8.3299999237060546875 8.659999847412109375 7.659999847412109375 7.3299999237060546875 8.4949998855590820312 11 7.7424998283386230469 10 9 8.4949998855590820312 9 10 10 8.8800001144409179688 8.7699995040893554688 10 10 8 5.9281249046325683594 6 7 9 9 7.5939998626708984375 8.4949998855590820312 8 5.4658823013305664062 9 9 6.8485713005065917969 8 8 7.79199981689453125 7.4949998855590820312 7 0.94175744056701660156 0.94175744056701660156 0.94175744056701660156 5 9 6
14 11.197999954223632812 11 12 13 14 13 15 12.74250030517578125 13 11 9.74250030517578125 9.4949998855590820312 13 14.494999885559082031 14 2.9544117450714111328 2.9544117450714111328 14 11 11.247499465942382812 12 12 9 8.0989999771118164062 11 14 10.123749732971191406 10.247499465942382812 13 10.141428947448730469 14 12 8.3850002288818359375 12 14 9.2474994659423828125 9.4949998855590820312 9.74250030517578125 11 12 12 11.329999923706054688 11.659999847412109375 11.494999885559082031 11.494999885559082031 13 11.74250030517578125 12 11 7.2474999427795410156 9 9 7.4949998855590820312 12 9 6.9829282760620117188 10 11 11 10 9.8249998092651367188 10 13 12 12.659999847412109375 13 11.494999885559082031 11 10 9.4949998855590820312 9 8.1649999618530273438 11 8 10 6.2474999427795410156 6.2969999313354492188 6.3464999198913574219 9 11 11.494999885559082031 8 6.5939998626708984375 6.6434998512268066406 6.6929998397827148438 6.7424998283386230469 11 13 11.494999885559082031 14 13 14 15 9.3299999237060546875 9 10 12 10.494999885559082031 10 11 7.8485713005065917969 11 10 8.659999847412109375 12.494999885559082031 14 10.593999862670898438 13 11 10.494999885559082031 10.247499465942382812 11.494999885559082031 7.9281249046325683594 10 10.494999885559082031 10.329999923706054688 12 9.79199981689453125 12 11 11 11 9.4949998855590820312 11 9.3299999237060546875 11 1.5928144454956054688 1.5928144454956054688 1.5868861675262451172 1.5868861675262451172 1.5809581279754638672 1.5750299692153930664 1.5691018104553222656 1.5691018104553222656 1.5631736516952514648 1.5631736516952514648 1.5513174533843994141 1.5513174533843994141 1.5513174533843994141 7 10 5 8 8 8.4949998855590820312 10 11 11 9.659999847412109375 9.3299999237060546875 10 10 6.4949998855590820312 7 10 11 12 10 10.494999885559082031 10 10.659999847412109375 10.329999923706054688 10 8 7 6.1414284706115722656 6.2828569412231445312 12 8.74250030517578125 9 9 7.1649999618530273438 7 5.79199981689453125 7 7.3299999237060546875 7.3299999237060546875 7.1649999618530273438 9.4949998855590820312 11 4.3168001174926757812 4.2771997451782226562 8 11 9 8 8 4.0395998954772949219 4.4949998855590820312 9 10 7.1414284706115722656 8.3299999237060546875 9 7.659999847412109375 9 8.74250030517578125 9 7.4949998855590820312 7 6.3299999237060546875 6 7 3.3785295486450195312 8 7.2474999427795410156 8.2474994659423828125 8.4949998855590820312 8.4949998855590820312 8.4949998855590820312 7.3299999237060546875 7 5 5.4949998855590820312 6 6.4949998855590820312 7 9 8 8 2.8355879783630371094 2.7969846725463867188 2.7197787761688232422 2.6811757087707519531 2.6425726413726806641 7 7 7 6.79199981689453125 6 7 2.137950897216796875 4 6 8 17 17 16 18 18 19 18 18 17.494998931884765625 19 15 15 13 12.494999885559082031 12 10.494999885559082031 10 8 6.7424998283386230469 7 6 5.4949998855590820312 3.1237499713897705078 8 7 2.3030612468719482422 2.2626528739929199219 2.2222447395324707031 2.1818366050720214844 2.1885714530944824219 7 9 8 9 6.5657143592834472656 7 9 7.8249998092651367188 7.659999847412109375 9 11 7.8662500381469726562 10 10 10 8 9 10 9.4949998855590820312 8.659999847412109375 8.8249998092651367188 9 9 9 5.8662500381469726562 8 7.5939998626708984375 7.395999908447265625 8 8.2474994659423828125 5.4076471328735351562 8 8.4949998855590820312 8 6.7071428298950195312 9 8 7.5939998626708984375 7.395999908447265625 0.92797386646270751953 0.93486571311950683594 0.93486571311950683594 0.94175744056701660156 6 5.2474999427795410156 5.659999847412109375
12.494999885559082031 11 10 13 16 14 12.79199981689453125 13.494999885559082031 12 11.494999885559082031 11.494999885559082031 11 12 12 12.329999923706054688 13.494999885559082031 13 2.9511766433715820312 2.9479413032531738281 2.944705963134765625 2.9414706230163574219 9 2.9317646026611328125 2.9285295009613037109 2.9252941608428955078 8 14 10 12 10 12 14 13 8.3299999237060546875 8.5500001907348632812 8.7699995040893554688 9 13 13 11.79199981689453125 13 12 13 12.494999885559082031 12 12 12 11.494999885559082031 11.247499465942382812 11 10 7 7 12 6.978214263916015625 6.975856781005859375 10 11 10 10 9.4949998855590820312 9.4949998855590820312 10 10.494999885559082031 13 12.329999923706054688 13 11.494999885559082031 11 12 11 11 8 7.7424998283386230469 7.4949998855590820312 10 6.1979999542236328125 9 9 11 9 11 8.4949998855590820312 7 13 12 6.79199981689453125 10 11 14 14 13 15 14 12 7.8662500381469726562 7.7424998283386230469 12.494999885559082031 11 10.79199981689453125 11.329999923706054688 7.9192857742309570312 11 12 9 12 10.79199981689453125 10.494999885559082031 11.494999885559082031 11 10.74250030517578125 12 11.247499465942382812 11 7.8662500381469726562 10 10.494999885559082031 11 9.5939998626708984375 12 12 11.494999885559082031 11.494999885559082031 10 9.659999847412109375 10 11 11 1.5868861675262451172 1.5868861675262451172 1.5809581279754638672 1.5750299692153930664 1.5750299692153930664 1.5691018104553222656 1.5631736516952514648 1.5631736516952514648 1.5572454929351806641 1.5513174533843994141 1.5513174533843994141 1.5513174533843994141 1.5453891754150390625 1.5453891754150390625 6 7 8 9 9 10 10 11 9 9 10 12 6 9 10 10 9 8 1.4505388736724853516 8 8 9 12 9 7.4949998855590820312 6.424285888671875 6.5657143592834472656 12 13 10 7.3299999237060546875 9 8 7.659999847412109375 7.4949998855590820312 7.659999847412109375 7.3299999237060546875 11 12 4.3729000091552734375 9 4.2375998497009277344 4.1979999542236328125 4.1584000587463378906 4.1188001632690429688 4.0791997909545898438 8 4 5 7 7 8 7.3299999237060546875 7.4949998855590820312 9 8.4949998855590820312 9 7.3299999237060546875 7 6.4949998855590820312 6.2474999427795410156 6 3.3494117259979248047 7 7.4949998855590820312 7.7424998283386230469 8.74250030517578125 8.659999847412109375 8.4949998855590820312 8 3 7 7 8 10 9.4949998855590820312 9 2.951396942138671875 2.9127938747406005859 2.8741908073425292969 6.4949998855590820312 6 6 2.603969573974609375 6 6.1979999542236328125 6.395999908447265625 6.5939998626708984375 8.4949998855590820312 8 2.1298360824584960938 2.1298360824584960938 5 8 16 15 15.494999885559082031 17 18 17 17 16.74250030517578125 17 17.494998931884765625 15 14 13.494999885559082031 13 10 9 7 7.4949998855590820312 7 6 3.3712499141693115234 3.2474999427795410156 5 8 5 7 6 8 7 2.1414284706115722656 8 7.1979999542236328125 7.395999908447265625 7.5939998626708984375 6.7071428298950195312 6.8485713005065917969 7 8 9.659999847412109375 9.3299999237060546875 11 11 12 9 7.2474999427795410156 7.4949998855590820312 8 9 9 8.4949998855590820312 8.4949998855590820312 8.4949998855590820312 11 9 5.80437469482421875 8 7 7.1979999542236328125 7.5939998626708984375 8 5.3494114875793457031 8.659999847412109375 9 6.5657143592834472656 6.424285888671875 9 8 7.1979999542236328125 0.9141902923583984375 0.92797386646270751953 0.92797386646270751953 0.92797386646270751953 0.92797386646270751953 6 5.4949998855590820312 5.7424998283386230469
11 12 8 14 16 12.593999862670898438 13 14 13 12 11.494999885559082031 12 13 12.494999885559082031 12.659999847412109375 14 12.494999885559082031 12 8 13 2.9382352828979492188 2.9349999427795410156 2.9317646026611328125 12 2.9220588207244873047 2.9188234806060791016 13 13 9 8.1099996566772460938 8.1649999618530273438 8.2200002670288085938 8.2749996185302734375 12 11 12 13 11.395999908447265625 11.593999862670898438 12 12 10.494999885559082031 10 12.494999885559082031 12 12.494999885559082031 11.494999885559082031 11 14 10 9 7 6.978214263916015625 6.978214263916015625 6.9687857627868652344 8 9 10 6.9864640235900878906 6.9864640235900878906 9 9 10 11 12 15 12 16 12 11 10 10 11.494999885559082031 11 11 7.2474999427795410156 9 6.1484999656677246094 8 8.4949998855590820312 8.4949998855590820312 11 9 7.4949998855590820312 12 13 12 6.8414998054504394531 11 13 13 12 13 13 11 7.6187496185302734375 10 12 12 10.593999862670898438 11.659999847412109375 10 12 13 11 13 12.659999847412109375 10 11 10 11 11.74250030517578125 11.494999885559082031 11 11 7.80437469482421875 10 10 9.395999908447265625 12 12.494999885559082031 12 11.494999885559082031 11 9.79199981689453125 9.5939998626708984375 9.395999908447265625 10 8 1.5868861675262451172 6 1.5691018104553222656 1.5691018104553222656 1.5691018104553222656 1.5631736516952514648 1.5572454929351806641 1.5513174533843994141 1.5513174533843994141 1.5513174533843994141 1.5453891754150390625 1.5453891754150390625 1.5394611358642578125 1.5335329771041870117 1.5276048183441162109 1.4979641437530517578 4 1.4861078262329101562 1.4861078262329101562 1.4742515087127685547 1.4742515087127685547 1.4564671516418457031 1.4505388736724853516 1.4505388736724853516 1.4505388736724853516 1.4505388736724853516 1.4505388736724853516 1.4505388736724853516 1.4505388736724853516 1.4505388736724853516 1.4505388736724853516 1.4505388736724853516 1.4505388736724853516 1.4505388736724853516 5 8 9 9.4949998855590820312 8 8 6.7071428298950195312 9 13 7.4949998855590820312 7.659999847412109375 9 10 9 7.5939998626708984375 7.4949998855590820312 10 8 4.4289999008178710938 9 12 9 11 11 8 3.6948885917663574219 3.6752145290374755859 9 5.4949998855590820312 7 7.1649999618530273438 7 7 9 8.2474994659423828125 7 7.659999847412109375 6.7424998283386230469 7 8 7 7 3.3202941417694091797 8 7.4949998855590820312 6.7424998283386230469 7.4949998855590820312 8.3299999237060546875 7 2.8941936492919921875 2.8622579574584960938 10 9 9.4949998855590820312 12 13 12 12 9 7 8 8 8 2.5653665065765380859 9 9 9 10 8 7 2.1217212677001953125 2.1217212677001953125 5 13 14 16 14.659999847412109375 15 18 16 16.618749618530273438 16.494998931884765625 17 18 16 13 12 9.4949998855590820312 9 3.8662500381469726562 3.7425000667572021484 3.6187500953674316406 3.4949998855590820312 5.4949998855590820312 5.2474999427795410156 6 6 5.2474999427795410156 9 9 11 2.0942857265472412109 8 6 6.3299999237060546875 6.659999847412109375 7 7.79199981689453125 8 8 7 9 11 11 12 10.494999885559082031 10 7 9 7.7424998283386230469 8 8.3299999237060546875 10 8 9 10 8 5.7424998283386230469 9 8 7 7 5.2911763191223144531 8 8.3299999237060546875 10 8 6.2828569412231445312 6.1414284706115722656 7 7 0.9141902923583984375 0.9141902923583984375 0.92108213901519775391 0.92108213901519775391 8 0.95455652475357055664 5.7424998283386230469 6
12 5.9123525619506835938 5.8929409980773925781 12 12.197999954223632812 12.395999908447265625 13 14 13.494999885559082031 13 14 12.164999961853027344 12.329999923706054688 12 11 10.593999862670898438 10.395999908447265625 12.494999885559082031 8.1649999618530273438 8.3299999237060546875 11 11.494999885559082031 12 12.329999923706054688 12.659999847412109375 2.91558837890625 2.91558837890625 8 8.05500030517578125 11 12 12.197999954223632812 12.395999908447265625 12.593999862670898438 12.79199981689453125 13 11.197999954223632812 12 11 11.494999885559082031 12 10 9 13 11 12 12 10.659999847412109375 10.329999923706054688 10 11 12 6.9664282798767089844 6.9581785202026367188 6.9617142677307128906 6.9617142677307128906 6.9687857627868652344 11 6.9864640235900878906 9 10.494999885559082031 12 11 12 13 13.494999885559082031 13 13 11.494999885559082031 11 9.4949998855590820312 9 6.8662500381469726562 10 11 10 7 9.659999847412109375 6.0989999771118164062 8 8 10 9.3299999237060546875 8 9 13 11.494999885559082031 13 6.8909997940063476562 6.9404997825622558594 7 7.1237497329711914062 12 13 7.4949998855590820312 8.3299999237060546875 8.659999847412109375 10 10.197999954223632812 10.395999908447265625 13 12 10.247499465942382812 10.494999885559082031 12 13 14 12.329999923706054688 10 9.8249998092651367188 10 12 13 14 13 13 7.7424998283386230469 7.6806249618530273438 9.1979999542236328125 12.494999885559082031 13.494999885559082031 13 12 11 10 8 11 9.1979999542236328125 9 7 7 1.5572454929351806641 1.5572454929351806641 1.5572454929351806641 1.5572454929351806641 1.5572454929351806641 1.5513174533843994141 1.5513174533843994141 1.5453891754150390625 1.5453891754150390625 1.5394611358642578125 1.5394611358642578125 1.5335329771041870117 1.5276048183441162109 1.4979641437530517578 1.4979641437530517578 1.4861078262329101562 1.4861078262329101562 1.4742515087127685547 1.4742515087127685547 1.4564671516418457031 1.4505388736724853516 1.4505388736724853516 1.4505388736724853516 1.4505388736724853516 1.4505388736724853516 1.4505388736724853516 1.4505388736724853516 1.4505388736724853516 1.4505388736724853516 1.4505388736724853516 1.4505388736724853516 1.4505388736724853516 1.4505388736724853516 1.4446108341217041016 4 9.4949998855590820312 9 8.4949998855590820312 8 6.8485713005065917969 10 10 7.8249998092651367188 9 7.79199981689453125 7.6929998397827148438 7.659999847412109375 9 10 8 4.48509979248046875 12 10 9.4949998855590820312 9 8.4949998855590820312 11 3.7145628929138183594 3.65554046630859375 9 7.3299999237060546875 7.659999847412109375 8.4949998855590820312 6 3.478473663330078125 8 8 7.4949998855590820312 6.7424998283386230469 6.4949998855590820312 6.2474999427795410156 6 3.3014068603515625 3.2817327976226806641 3.2911765575408935547 7 6.4949998855590820312 7 8 8.4949998855590820312 2.9261288642883300781 6 7 2.8303225040435791016 2.7983870506286621094 7 10 9 9 8 8.4949998855590820312 9 6.7699995040893554688 7.4949998855590820312 7 6 2.5267634391784667969 9 8 9 9 8.4949998855590820312 5.4949998855590820312 2.1136064529418945312 2.4057376384735107422 2.6978688240051269531 12 14.329999923706054688 16 14.494999885559082031 17 15 16.247499465942382812 16 14.494999885559082031 20 19 12.84857177734375 12.89571380615234375 10 8 6 5.4949998855590820312 5 5.7424998283386230469 5.7424998283386230469 6 5.7424998283386230469 5.4949998855590820312 6 6 10 2.0471427440643310547 2.0471427440643310547 9 9 8 6.2474999427795410156 6.4949998855590820312 6.7424998283386230469 6.4949998855590820312 6.659999847412109375 8 8 10 10.494999885559082031 12 13 11 6.4949998855590820312 12 10 10 8.1649999618530273438 7 8 8.3299999237060546875 8.659999847412109375 9 5.6806249618530273438 8 8 6 5.2329411506652832031 7 8 9 9 9 7.4949998855590820312 6 5 4 0.9141902923583984375 0.9141902923583984375 0.9141902923583984375 0.9141902923583984375 8 0.96341735124588012695 0.97227823734283447266 0.97227823734283447266
5.9317646026611328125 15 5.8735294342041015625 13 11.329999923706054688 11.659999847412109375 13 14 13 13 13 12.494999885559082031 14 11 10.79199981689453125 11 10.197999954223632812 10 9 8.8249998092651367188 8.4949998855590820312 8.659999847412109375 11 12 15 2.9123530387878417969 13 14 13 11 12 13 16 14 12 10.424285888671875 11 11 10.84857177734375 11 13 13 8.8662500381469726562 10.74250030517578125 10.494999885559082031 10.659999847412109375 13 11 10.659999847412109375 10.329999923706054688 12 11 6.9546427726745605469 9 9.4949998855590820312 10 6.9723215103149414062 10 6.9829282760620117188 10 10 11 9.659999847412109375 10 13 14 13.659999847412109375 13.329999923706054688 14 13 11 9 6.7424998283386230469 10 11 10.659999847412109375 10 9.3299999237060546875 9 6.0494999885559082031 10 10.494999885559082031 9.659999847412109375 8.4949998855590820312 9.4949998855590820312 11 11.494999885559082031 12 8 11 11.494999885559082031 12 7.2474999427795410156 7.371250152587890625 8 11 11.329999923706054688 10 11 12 13 11 10.494999885559082031 10.742499351501464844 13 12 10.494999885559082031 12 9.4949998855590820312 10.494999885559082031 9.659999847412109375 12 14 11.494999885559082031 12 13 12 7.6187496185302734375 9 12 12 12 11 11 5 2.4949998855590820312 10 10.494999885559082031 10 7.4949998855590820312 6.4949998855590820312 1.5572454929351806641 1.5572454929351806641 1.5572454929351806641 1.5572454929351806641 1.5513174533843994141 1.5513174533843994141 1.5453891754150390625 1.5453891754150390625 1.5394611358642578125 1.5394611358642578125 1.5335329771041870117 1.5276048183441162109 1.5216766595840454102 1.4979641437530517578 1.4979641437530517578 1.4861078262329101562 1.4861078262329101562 1.4742515087127685547 1.4742515087127685547 1.4564671516418457031 1.4505388736724853516 1.4505388736724853516 1.4505388736724853516 1.4505388736724853516 1.4505388736724853516 1.4505388736724853516 1.4505388736724853516 1.4505388736724853516 1.4505388736724853516 1.4505388736724853516 1.4505388736724853516 1.4505388736724853516 1.4446108341217041016 1.4446108341217041016 1.4386826753616333008 1.4386826753616333008 8 4 11 8 10 10.494999885559082031 8 7.8909997940063476562 7.8249998092651367188 7.8249998092651367188 9 7.4949998855590820312 7.2474999427795410156 7 4.5412001609802246094 11 9 8 9.4949998855590820312 9 3.7342369556427001953 9 3.6358664035797119141 3.6358664035797119141 7 6.4949998855590820312 8 8 3.4981477260589599609 3.4587996006011962891 8 7 9 7 3.3407549858093261719 3.3210809230804443359 8 3.2620587348937988281 7 6 6.2474999427795410156 8 8.4949998855590820312 10 2.9580645561218261719 9 7.4949998855590820312 7 2.7983870506286621094 2.7664515972137451172 8 6 6.3299999237060546875 7 6.659999847412109375 7 6.7699999809265136719 6.5499997138977050781 6.3299999237060546875 7 2.4881603717803955078 2.4495573043823242188 2.4109542369842529297 2.3723511695861816406 8 8.4949998855590820312 5 2.1054918766021728516 8.4949998855590820312 8 8 12 16 16 14 15 15 16 14 12.565713882446289062 12.707142829895019531 12.801428794860839844 12 8.4949998855590820312 6.659999847412109375 6.3299999237060546875 6 6 6 7 7 6.4949998855590820312 6 7 7 10 2 9 5 5.3299999237060546875 6 7 6.1649999618530273438 6.3299999237060546875 7 8 6.8249998092651367188 7 11 11 11 12 10 11 6 10 8 8 5.3093748092651367188 5.371250152587890625 5.4331250190734863281 5.4949998855590820312 5.5568747520446777344 5.6187496185302734375 7 7.4949998855590820312 8 5.1747059822082519531 8 9 9.659999847412109375 9 8 7.4949998855590820312 7 0.89351499080657958984 0.90040671825408935547 0.90040671825408935547 0.90729856491088867188 0.90729856491088867188 0.90729856491088867188 7 5 5.4949998855590820312 0.98113912343978881836
5.9511761665344238281 13 5.8541173934936523438 11 12 13 15 13.494999885559082031 13 12 12.824999809265136719 12.659999847412109375 13 11 11 12 11.494999885559082031 11 10 9.4949998855590820312 9 11 9 10 12 2.9091176986694335938 10 13 13 12 14 11 12 10.141428947448730469 10.282856941223144531 12 10.565713882446289062 10.707142829895019531 11 10.79199981689453125 12 12.494999885559082031 10 8.74250030517578125 10.247499465942382812 10.329999923706054688 12 12 11.659999847412109375 11 12.494999885559082031 10 6.9428567886352539062 6.9310712814331054688 11 8 6.975856781005859375 6.9793925285339355469 7 7.3299999237060546875 7.659999847412109375 9.3299999237060546875 9.3299999237060546875 9.659999847412109375 11 14.494999885559082031 14 15 14 13 11 9 6.6187496185302734375 6.4949998855590820312 10 10.329999923706054688 9 8 5.9771428108215332031 6 10 11 10 10 10 11.494999885559082031 11.494999885559082031 12 8.2474994659423828125 13 10 12 12 11 12 11.247499465942382812 12 12 10.197999954223632812 12 11 10.74250030517578125 10.618749618530273438 13.659999847412109375 13 13.494999885559082031 13 10 9 11 13 9.4949998855590820312 11 12 12.494999885559082031 14 12 7.5568747520446777344 14 12 11 10 10 5.4949998855590820312 5.2474999427795410156 10 2 10 9 7 6 1.5572454929351806641 1.5572454929351806641 1.5572454929351806641 1.5572454929351806641 1.5513174533843994141 1.5453891754150390625 1.5453891754150390625 1.5394611358642578125 1.5394611358642578125 1.5335329771041870117 1.5276048183441162109 1.5216766595840454102 1.5157485008239746094 1.4979641437530517578 1.4979641437530517578 1.4861078262329101562 1.4861078262329101562 1.4742515087127685547 1.4742515087127685547 1.4564671516418457031 1.4505388736724853516 1.4505388736724853516 1.4505388736724853516 1.4505388736724853516 1.4505388736724853516 1.4505388736724853516 1.4505388736724853516 1.4505388736724853516 1.4505388736724853516 1.4505388736724853516 1.4505388736724853516 1.4446108341217041016 1.4446108341217041016 1.4386826753616333008 1.4386826753616333008 1.4386826753616333008 1.4386826753616333008 4 4 8.4949998855590820312 9 7.4949998855590820312 7 10 8 8 7.7424998283386230469 8 7 7.4949998855590820312 4.5973000526428222656 8 11 9 7.659999847412109375 7.659999847412109375 7 3.7539110183715820312 10 7 3.6161923408508300781 6 7 3.5374960899353027344 3.5178217887878417969 7 3.4391255378723144531 3.4194514751434326172 3.3997774124145507812 3.3801033496856689453 3.3604292869567871094 9 9 8 3.2329411506652832031 8 7 7.4949998855590820312 8 8 3 8.4949998855590820312 8 8 8 7 2.734516143798828125 9 11 10 7.3299999237060546875 7.659999847412109375 6.659999847412109375 6.659999847412109375 6.659999847412109375 6.3299999237060546875 6 5.1979999542236328125 5 2.3337483406066894531 2.2951452732086181641 10 9 2.0973770618438720703 7 8.3299999237060546875 8.659999847412109375 2.7506146430969238281 10 13 17 11 15 12.141428947448730469 12.424285888671875 17 14.494999885559082031 13 12.494999885559082031 8 8 6.659999847412109375 7 7 9 8 9 8.4949998855590820312 8 7.4949998855590820312 8.4949998855590820312 8 1.9450000524520874023 8 9 8 5.659999847412109375 6 6 8 8 8 8 7 7.2474999427795410156 9 9.4949998855590820312 10 9.4949998855590820312 9 5 7 8 5.2474999427795410156 6 6.3299999237060546875 7 8 7 7.4949998855590820312 9 8.3299999237060546875 5.1164703369140625 9 9.659999847412109375 9.3299999237060546875 10 9 7.4949998855590820312 7 7 0.88662314414978027344 0.89351499080657958984 0.90040671825408935547 0.90040671825408935547 0.90040671825408935547 0.90040671825408935547 6 7 5.4949998855590820312 5
16 5.8152937889099121094 5.8347058296203613281 12 12.329999923706054688 13 14 14 15 12 11.79199981689453125 11.692999839782714844 12.824999809265136719 12.824999809265136719 12.329999923706054688 12.164999961853027344 11.329999923706054688 11 10.247499465942382812 10 13 11.494999885559082031 9.2828569412231445312 9.1414289474487304688 12 13 2.9058823585510253906 10 13 11.494999885559082031 11.494999885559082031 10.494999885559082031 10 10 13 16 12 12 10.593999862670898438 10.79199981689453125 12 12 12 8.6187496185302734375 8.4949998855590820312 10 11 13 11.329999923706054688 11 12 9.4949998855590820312 9 6.9192857742309570312 10 8.4949998855590820312 9 6.9829282760620117188 9 10 10 9 12 12.494999885559082031 14 14 14.494999885559082031 12.79199981689453125 13 12 11 9 11 8 6.371250152587890625 6.2474999427795410156 6.1237497329711914062 6 5.9642853736877441406 5.9514284133911132812 5.9385709762573242188 10 11 10 11 11 11.659999847412109375 12 11 8.4949998855590820312 8.74250030517578125 10 13 10.659999847412109375 10.824999809265136719 11.494999885559082031 11.659999847412109375 11 10.395999908447265625 12 13 13 13 13.329999923706054688 13 14 14 10.494999885559082031 8.8800001144409179688 10 9.3299999237060546875 11 10.329999923706054688 10.659999847412109375 12 11.494999885559082031 12 7.4949998855590820312 12 11 10.494999885559082031 10 5.7424998283386230469 10 11.494999885559082031 11 10 1.9870712757110595703 10 8 1.9548546075820922852 7 1.5572454929351806641 1.5453891754150390625 1.5453891754150390625 1.5453891754150390625 1.5394611358642578125 1.5394611358642578125 1.5394611358642578125 1.5335329771041870117 1.5276048183441162109 1.5216766595840454102 1.5157485008239746094 1.5157485008239746094 1.4979641437530517578 1.4979641437530517578 1.4861078262329101562 1.4861078262329101562 1.4742515087127685547 1.4742515087127685547 1.4564671516418457031 1.4505388736724853516 1.4505388736724853516 1.4505388736724853516 1.4505388736724853516 1.4505388736724853516 1.4505388736724853516 1.4505388736724853516 1.4505388736724853516 1.4505388736724853516 1.4505388736724853516 1.4446108341217041016 1.4446108341217041016 1.4386826753616333008 1.4386826753616333008 1.4386826753616333008 1.4386826753616333008 1.4386826753616333008 7 10 5 5.0618748664855957031 5.1237497329711914062 5.1856250762939453125 5.2474999427795410156 11 8 7.4949998855590820312 7 6 5 4.6533999443054199219 4.7094998359680175781 11 9.4949998855590820312 7.659999847412109375 7.3299999237060546875 8 3.7735850811004638672 9 9 9 3.5965182781219482422 8 3.5571701526641845703 9 9 8 8 8.4949998855590820312 10 9 10 10 8 3.2038235664367675781 8 8 9 7 3.029117584228515625 9 7.4949998855590820312 7.4949998855590820312 9 8 7 2.7025806903839111328 6 8 8.4949998855590820312 8 9 8 6 5.79199981689453125 5.5939998626708984375 5.395999908447265625 7 5.4949998855590820312 5 4 2.256542205810546875 7 8 2.0892622470855712891 8 8 8 2.5112295150756835938 2.2718443870544433594 2.0324590206146240234 2.4990572929382324219 12 17 12.282856941223144531 15 14 12 13 11 9 8.4949998855590820312 8 10 10 10 9 8 7.659999847412109375 7.3299999237060546875 9 9 9 1.9000000953674316406 1.8550000190734863281 11 6 8 6.4949998855590820312 6.4949998855590820312 7 8 9 6.659999847412109375 7 7.4949998855590820312 7.7424998283386230469 12 11 9 4.8909997940063476562 7 9 5.1856250762939453125 9 7 6.659999847412109375 7 8 9 8.659999847412109375 8 5.05823516845703125 9 9.3299999237060546875 9 8 8 7 7 0.87973129749298095703 0.87973129749298095703 0.88662314414978027344 0.89351499080657958984 0.89351499080657958984 0.89351499080657958984 0.89351499080657958984 0.87973129749298095703 5 6 5
5.7958822250366210938 13 13 12.550000190734863281 12.659999847412109375 12.494999885559082031 12.659999847412109375 13 13 12.824999809265136719 11.593999862670898438 11.692999839782714844 13 12.659999847412109375 12.494999885559082031 11.659999847412109375 11.494999885559082031 11.494999885559082031 10.494999885559082031 10 11 9.5657138824462890625 9.424285888671875 12.659999847412109375 12.329999923706054688 13 12 2.9026470184326171875 12 11 10.494999885559082031 10.494999885559082031 10 9.4949998855590820312 12 14 14 10.395999908447265625 11 11 11 11.494999885559082031 12 12 11.824999809265136719 8.371250152587890625 9.4949998855590820312 11 11 10.769999504089355469 13 12 6.948749542236328125 6.9074997901916503906 10 10 9.4949998855590820312 9.2474994659423828125 7 8 9 10 11 11 12 16 15 12.593999862670898438 12.395999908447265625 14 13 13 8.1414289474487304688 8.2828569412231445312 11 10.494999885559082031 10 10 10 6.659999847412109375 5.9385709762573242188 5.9257140159606933594 9 9.4949998855590820312 11 12 13 11.329999923706054688 11 10 11 10.164999961853027344 10.329999923706054688 10.494999885559082031 13 11.74250030517578125 12 13 13 10.593999862670898438 10.79199981689453125 12 12 10.824999809265136719 10.659999847412109375 10.494999885559082031 10.494999885559082031 10 8.7699995040893554688 9.1649999618530273438 11 10 10 11 11 12 12 7.4331250190734863281 12 12 10 6 11 13 11 10.494999885559082031 10 9 1.9841424226760864258 1.9548546075820922852 1.9548546075820922852 1.5394611358642578125 1.5394611358642578125 1.5394611358642578125 1.5394611358642578125 1.5394611358642578125 1.5394611358642578125 1.5394611358642578125 1.5335329771041870117 1.5276048183441162109 1.5216766595840454102 1.5157485008239746094 1.5157485008239746094 1.5098203420639038086 1.4979641437530517578 1.4979641437530517578 1.4861078262329101562 1.4861078262329101562 1.4742515087127685547 1.4742515087127685547 1.4564671516418457031 1.4505388736724853516 1.4505388736724853516 1.4505388736724853516 1.4505388736724853516 1.4505388736724853516 1.4505388736724853516 1.4505388736724853516 1.4505388736724853516 1.4505388736724853516 1.4446108341217041016 1.4446108341217041016 1.4386826753616333008 1.4386826753616333008 1.4386826753616333008 1.4386826753616333008 1.4386826753616333008 1.4386826753616333008 6 7.7424998283386230469 7.4949998855590820312 7 6 9 5.3093748092651367188 11 7.659999847412109375 7.3299999237060546875 5.659999847412109375 5.3299999237060546875 6 5.3299999237060546875 5 4.7655997276306152344 10 10 9 8 6 3.7932591438293457031 7 9 9 3.5768442153930664062 11 8 7.8662500381469726562 7.7424998283386230469 7.6187496185302734375 8 8 9 7.4949998855590820312 7 8 8 3.1747059822082519531 8 9 9 3.0582354068756103516 8 8 7 8.4949998855590820312 8 8 7 2.6706452369689941406 7 7.3299999237060546875 7.659999847412109375 8 8 7 6 6 7 6 6 8 5.3299999237060546875 5 2.2179391384124755859 2.1793360710144042969 2.0811474323272705078 2.0730328559875488281 2.0649180412292480469 2.0568032264709472656 2.0486884117126464844 2.0405738353729248047 2.0243442058563232422 2.0162293910980224609 2.0081148147583007812 2 15 15 13 11.494999885559082031 12 10.494999885559082031 10.74250030517578125 10 9 10 10 8 8 9 8 7.4949998855590820312 7 8.4949998855590820312 8 4 1.8100000619888305664 1.7650001049041748047 9 6.2474999427795410156 7 6.7424998283386230469 8 8.4949998855590820312 8 6.3299999237060546875 8 8 9 11 11 4.79199981689453125 5 5.0618748664855957031 5.1237497329711914062 8 8.4949998855590820312 8 8 8.4949998855590820312 9.4949998855590820312 9 9 5 8.4949998855590820312 8 10 8 7.4949998855590820312 7 8 0.865947723388671875 0.87283957004547119141 0.87973129749298095703 0.87973129749298095703 0.88662314414978027344 0.88662314414978027344 0.87973129749298095703 0.87973129749298095703 0.87973129749298095703 0.90517795085906982422 0.90517795085906982422 0.90517795085906982422
11 11.494999885559082031 13.494999885559082031 12.769999504089355469 13 13 12.329999923706054688 12 13 12.494999885559082031 12.659999847412109375 11.395999908447265625 14 13 12.659999847412109375 12 12 11 10.74250030517578125 9.84857177734375 9.7071428298950195312 9.7778568267822265625 10 11 11 12.494999885559082031 12.494999885559082031 13 2.8994116783142089844 10 12 12 11 9 13 14 15 11 10.197999954223632812 10.659999847412109375 11 11.494999885559082031 12 11.659999847412109375 11.659999847412109375 8.2474994659423828125 9 12 12.494999885559082031 10.550000190734863281 10.659999847412109375 9 6.8957142829895019531 6.8839282989501953125 11 11 9.4949998855590820312 10 9 10 8.3299999237060546875 8.659999847412109375 9 10 13 11.659999847412109375 13 12.197999954223632812 13 13 13.494999885559082031 12 10 8.424285888671875 8.5657138824462890625 12 13 10.494999885559082031 10 6.659999847412109375 6.3299999237060546875 5.9128570556640625 11 10.659999847412109375 11 12 13.494999885559082031 14 10.618749618530273438 10.247499465942382812 11.494999885559082031 10 10 14 11.197999954223632812 11.395999908447265625 11.593999862670898438 11.79199981689453125 11.824999809265136719 14 12 14 12 15 16 15.494999885559082031 10.329999923706054688 11 8.659999847412109375 9 11 7.8249998092651367188 10 11 10.659999847412109375 13 10 7.371250152587890625 11 10 7.0618748664855957031 7 12 11.659999847412109375 12 10 9.4949998855590820312 9.2474994659423828125 1.9782848358154296875 1.9548546075820922852 1.9548546075820922852 1.9548546075820922852 1.5394611358642578125 1.5394611358642578125 1.5394611358642578125 1.5394611358642578125 1.5394611358642578125 1.5394611358642578125 1.5216766595840454102 1.5216766595840454102 1.5157485008239746094 1.5157485008239746094 1.5098203420639038086 1.5038921833038330078 1.4979641437530517578 1.4979641437530517578 1.4861078262329101562 1.4861078262329101562 1.4742515087127685547 1.4742515087127685547 1.4564671516418457031 1.4505388736724853516 1.4505388736724853516 1.4505388736724853516 1.4505388736724853516 1.4505388736724853516 1.4505388736724853516 1.4505388736724853516 1.4505388736724853516 1.4446108341217041016 1.4446108341217041016 1.4386826753616333008 1.4386826753616333008 1.4386826753616333008 1.4386826753616333008 1.4386826753616333008 1.4386826753616333008 1.4386826753616333008 8 9 7.2474999427795410156 6.4949998855590820312 6.2474999427795410156 9.4949998855590820312 5.371250152587890625 5.4331250190734863281 10 10 7 5.659999847412109375 5.659999847412109375 6 4.87779998779296875 4.8217000961303710938 6 10.494999885559082031 11 7 6.4949998855590820312 6.3299999237060546875 3.8129332065582275391 9 8 8 10 9 11 9.659999847412109375 7.4949998855590820312 7.371250152587890625 7 6.4949998855590820312 6 5 4.8662500381469726562 7 8 3.1455881595611572266 3.1164705753326416016 3.0873529911041259766 8 7.4949998855590820312 7 6 7 7.2474999427795410156 7.4949998855590820312 2.6067743301391601562 2.6387095451354980469 8 8.1979999542236328125 12 8.79199981689453125 9 8 8 6.4949998855590820312 6.1979999542236328125 7.2474999427795410156 7 6 5.659999847412109375 6 6 2.2694098949432373047 6 7 2.5396311283111572266 9 10 11 9 8.659999847412109375 10.494999885559082031 2 1.9570000171661376953 12 14 11 10 10.247499465942382812 10.494999885559082031 9.4949998855590820312 9 9 8 7.4949998855590820312 6.7424998283386230469 6.4949998855590820312 6.2474999427795410156 6 4.7424998283386230469 4.4949998855590820312 4.2474999427795410156 9 8 1.7200000286102294922 8 8 8.4949998855590820312 7.659999847412109375 7.659999847412109375 9.4949998855590820312 8.4949998855590820312 6 7 6.4949998855590820312 7 9 10 4.6929998397827148438 7 8 8 7.79199981689453125 9 8 10 9 10 11 10 8 0.80392163991928100586 0.80392163991928100586 0.80392163991928100586 8 8 7 0.865947723388671875 0.865947723388671875 0.865947723388671875 0.87283957004547119141 0.87973129749298095703 0.87973129749298095703 0.87973129749298095703 0.87973129749298095703 0.87973129749298095703 0.90517795085906982422 0.90517795085906982422 0.90517795085906982422 0.91578072309494018555
12.494999885559082031 13 13 11.659999847412109375 12.494999885559082031 12.494999885559082031 11 11.659999847412109375 13 12.329999923706054688 13 11.197999954223632812 12.494999885559082031 12.329999923706054688 13 13 12 11 11 11.74250030517578125 11.494999885559082031 11.247499465942382812 11 10.424285888671875 10.282856941223144531 11 10.141428947448730469 10 2.8961765766143798828 2.8929412364959716797 8 8.3299999237060546875 8.659999847412109375 11 10.79199981689453125 12 14 12 10 10.329999923706054688 10.659999847412109375 11 13 11.494999885559082031 11.494999885559082031 12 8.1237497329711914062 12 12 10.329999923706054688 10 6.8485713005065917969 6.8485713005065917969 6.872142791748046875 11 10 9.74250030517578125 10.494999885559082031 11.494999885559082031 12 6.846710205078125 6.9183549880981445312 6.9183549880981445312 10 11 11.329999923706054688 12 12 12 14 13.494999885559082031 13 11 11 8.7071428298950195312 8.84857177734375 8.84857177734375 12 10 10 6 5.8999996185302734375 9 10.494999885559082031 10.329999923706054688 10.494999885559082031 13 14 13 10.494999885559082031 10.74250030517578125 12 12 13 11 11.164999961853027344 11.329999923706054688 11.659999847412109375 12 13 12.494999885559082031 12 13.494999885559082031 13 15 15 12 10.164999961853027344 8.5500001907348632812 12 10.659999847412109375 7.659999847412109375 10 10.329999923706054688 11 11.494999885559082031 7.3093748092651367188 7.2474999427795410156 7.1856250762939453125 7.1237497329711914062 12 11 11.329999923706054688 11.659999847412109375 11 9.74250030517578125 10 10 1.9782848358154296875 1.9548546075820922852 1.9548546075820922852 1.9548546075820922852 1.5394611358642578125 1.5394611358642578125 1.5216766595840454102 1.5216766595840454102 1.5216766595840454102 1.5216766595840454102 1.5216766595840454102 1.5216766595840454102 1.5157485008239746094 1.5098203420639038086 1.5098203420639038086 1.5038921833038330078 1.4979641437530517578 1.4979641437530517578 1.4861078262329101562 1.4861078262329101562 1.4742515087127685547 1.4742515087127685547 1.4564671516418457031 1.4505388736724853516 1.4505388736724853516 1.4505388736724853516 1.4505388736724853516 1.4505388736724853516 1.4505388736724853516 1.4505388736724853516 1.4446108341217041016 1.4446108341217041016 1.4386826753616333008 1.4386826753616333008 1.4386826753616333008 1.4386826753616333008 1.4386826753616333008 1.4386826753616333008 1.4386826753616333008 1.4386826753616333008 9 10 7.2474999427795410156 7 8 8 8 5.4949998855590820312 9 10 7 8 5 4.9338998794555664062 7 9 6.4949998855590820312 10 11 9 7 6.659999847412109375 4 3.832607269287109375 7 7.4949998855590820312 8 8.4949998855590820312 11 9.3299999237060546875 9 7.2474999427795410156 7.1237497329711914062 6 5.4949998855590820312 9 4.7424998283386230469 4.6187496185302734375 8 9 8 8 3.1800000667572021484 3.0899999141693115234 3 2.8941936492919921875 6 7 7.7424998283386230469 2.5748386383056640625 8 7 8.395999908447265625 8.5939998626708984375 10 7.7424998283386230469 8 8 6.5939998626708984375 6.395999908447265625 7.4949998855590820312 7 7 6.2474999427795410156 6 5 5 2.3594837188720703125 2.4495573043823242188 3 2.6297049522399902344 8 9 8 8.3299999237060546875 10 10 9 1.9240000247955322266 12 11 9.4949998855590820312 10 10 9 8 8 7 7 6.7699995040893554688 6.5499997138977050781 6.3299999237060546875 5.4949998855590820312 5.371250152587890625 5.2474999427795410156 5 7 8.3299999237060546875 8.659999847412109375 1.6749999523162841797 10 9.4949998855590820312 7.3299999237060546875 9 9.4949998855590820312 8 4 6 5 5.4949998855590820312 8 9 4.5939998626708984375 8 8.4949998855590820312 8 7.79199981689453125 7.5939998626708984375 7.395999908447265625 7.1979999542236328125 8 8 8 8 0.80392163991928100586 0.80392163991928100586 0.80392163991928100586 0.80392163991928100586 0.80392163991928100586 0.80392163991928100586 3 0.84527242183685302734 0.865947723388671875 0.865947723388671875 0.865947723388671875 0.87283957004547119141 0.87283957004547119141 0.87283957004547119141 0.87283957004547119141 0.88397240638732910156 0.90517795085906982422 0.90517795085906982422 0.91578072309494018555 0.92638343572616577148
12 15 11.329999923706054688 11.659999847412109375 12 11.659999847412109375 11 11.329999923706054688 11 12.164999961853027344 14 11 12 13 12 12 12.494999885559082031 12 13 12 10.84857177734375 10.707142829895019531 10.565713882446289062 12 11 9.659999847412109375 9.3299999237060546875 9 14 2.8897058963775634766 2.8864705562591552734 12 12.494999885559082031 13 12 10.593999862670898438 11 13 8.84857177734375 10 10.659999847412109375 11 11.494999885559082031 11.329999923706054688 11 12 8 11 13 12 6.7071428298950195312 9 8 10 11 10 10 10.494999885559082031 11 9.4949998855590820312 6.7750654220581054688 11 11 12 13 11 12 11 10.494999885559082031 10.247499465942382812 12 12.659999847412109375 12.329999923706054688 13 13 13 14 12 11 10.494999885559082031 10 9 5.8871426582336425781 9 10 10 11 12 11.494999885559082031 11 12 11 11.494999885559082031 13 10.494999885559082031 11 11.494999885559082031 12 11.494999885559082031 12 12 10.824999809265136719 11 10.659999847412109375 10.494999885559082031 10.329999923706054688 10.164999961853027344 10 8.4399995803833007812 11 10.329999923706054688 7.4949998855590820312 11.494999885559082031 11.659999847412109375 11.824999809265136719 11 12 12.494999885559082031 12 12 12.494999885559082031 11.494999885559082031 11 10.74250030517578125 11 10 9.4949998855590820312 10 1.9548546075820922852 1.9548546075820922852 1.9548546075820922852 1.9197092056274414062 1.9197092056274414062 1.7791274785995483398 1.5216766595840454102 1.4979641437530517578 1.4979641437530517578 1.4979641437530517578 1.5216766595840454102 1.5157485008239746094 1.5157485008239746094 1.5098203420639038086 1.5038921833038330078 1.4979641437530517578 1.4979641437530517578 1.4861078262329101562 1.4861078262329101562 1.4801796674728393555 1.4742515087127685547 1.4742515087127685547 1.4564671516418457031 1.4505388736724853516 1.4505388736724853516 1.4505388736724853516 1.4505388736724853516 1.4505388736724853516 1.4505388736724853516 1.4446108341217041016 1.4446108341217041016 1.4386826753616333008 1.4386826753616333008 1.4386826753616333008 1.4386826753616333008 1.4386826753616333008 1.4386826753616333008 1.4386826753616333008 1.4386826753616333008 9 10 8 7.4949998855590820312 6.7424998283386230469 7.659999847412109375 7.3299999237060546875 7 5.5568747520446777344 7 7.4949998855590820312 10 6 7 7.4949998855590820312 10 10.494999885559082031 10 9 8.4949998855590820312 8 7 7 4.1414284706115722656 7 3.8522813320159912109 7 7.4949998855590820312 9 9 9.4949998855590820312 9.4949998855590820312 7 6.2474999427795410156 6 6.1979999542236328125 7 6 4.4949998855590820312 4.371250152587890625 6 7 4 3.2699999809265136719 8 5.4949998855590820312 5 2.7983870506286621094 6 7 2.5429031848907470703 7 6.659999847412109375 8 8 7.2474999427795410156 7.4949998855590820312 11 9 6.79199981689453125 7 7.7424998283386230469 7.4949998855590820312 6.7424998283386230469 6.4949998855590820312 5.2828569412231445312 5.1414284706115722656 5 3.6600000858306884766 3.3299999237060546875 6 2.7197787761688232422 6 7 8 10 7 7.4949998855590820312 7 1.8910000324249267578 1.8910000324249267578 9 11 10.494999885559082031 10.494999885559082031 8 7 6 6.4949998855590820312 7 6.7699999809265136719 6.659999847412109375 5.6187496185302734375 8 8.4949998855590820312 8 5.1237497329711914062 7.4949998855590820312 9 10 1.629999995231628418 7 9 7 8 9 3.7920000553131103516 4 4.0989999771118164062 4.1979999542236328125 4.2969999313354492188 7 4.4949998855590820312 7 8 8.4949998855590820312 7.7424998283386230469 7.7424998283386230469 7.4949998855590820312 7.2474999427795410156 7 7 4.2474999427795410156 4 0.79702985286712646484 0.79702985286712646484 0.80392163991928100586 0.80392163991928100586 0.80392163991928100586 0.80392163991928100586 0.80392163991928100586 0.84527242183685302734 0.84527242183685302734 0.84527242183685302734 0.84527242183685302734 0.865947723388671875 0.865947723388671875 0.865947723388671875 0.865947723388671875 0.87336969375610351562 0.88397240638732910156 0.89457517862319946289 0.90517795085906982422 0.91578072309494018555 0.91578072309494018555
5.6211762428283691406 13 11 11.329999923706054688 11.659999847412109375 11.329999923706054688 11 8 12 12 5.4270586967468261719 5.4076471328735351562 10.494999885559082031 10 13 13 11.494999885559082031 11.659999847412109375 11.824999809265136719 12.659999847412109375 11 12 14 12 10 12 12 12 13 12 2.8864705562591552734 2.8832354545593261719 2.8800001144409179688 10 11 10.395999908447265625 12 11 8.7071428298950195312 12 10.329999923706054688 10 11 11 8 2.8282353878021240234 12 9 11 6.5657143592834472656 12 13 12 11 11 9.659999847412109375 9.3299999237060546875 9 10 9.4949998855590820312 6.7034206390380859375 9 11 10 10 9.659999847412109375 12 10.74250030517578125 12 10 8.74250030517578125 12 12 13 16 14 14 15 10 10 10 9.4949998855590820312 9 5.8742856979370117188 10 9.4949998855590820312 11 12 11 11.494999885559082031 12 12 11.494999885559082031 13 10 9 12 11 11.247499465942382812 11.494999885559082031 11.74250030517578125 12 13 13 13.659999847412109375 14 11 10 8.3299999237060546875 8.2200002670288085938 10 7.3299999237060546875 11.329999923706054688 12 9.79199981689453125 9.79199981689453125 11.494999885559082031 11.659999847412109375 11 10.659999847412109375 12 11 10.494999885559082031 11 12 10 10 9 9 1.9197092056274414062 1.9197092056274414062 1.9197092056274414062 1.8494184017181396484 1.8142728805541992188 1.7791274785995483398 1.4979641437530517578 1.4979641437530517578 1.4979641437530517578 1.4979641437530517578 1.4979641437530517578 1.4979641437530517578 1.4979641437530517578 1.5038921833038330078 1.4979641437530517578 1.4979641437530517578 1.4861078262329101562 1.4861078262329101562 1.4801796674728393555 1.4742515087127685547 1.4623951911926269531 1.4564671516418457031 1.4505388736724853516 1.4505388736724853516 1.4505388736724853516 1.4505388736724853516 1.4505388736724853516 1.4446108341217041016 1.4446108341217041016 1.4386826753616333008 1.4386826753616333008 1.4386826753616333008 1.4386826753616333008 1.4386826753616333008 1.4386826753616333008 1.4386826753616333008 1.4386826753616333008 1.4386826753616333008 9 10 8 7.7424998283386230469 8 8.4949998855590820312 8 6 5.6187496185302734375 9 10 8.4949998855590820312 8 6.4949998855590820312 10 8 11 10 9 9 7 7 4.424285888671875 4.2828569412231445312 6 3.8981876373291015625 3.8719553947448730469 7 8 9 9 9 8 6.4949998855590820312 6.5939998626708984375 6.395999908447265625 7 7 6 5 4.2474999427795410156 4.1237497329711914062 8 3.3600001335144042969 7.4949998855590820312 7 5.4949998855590820312 6 2.7025806903839111328 2.6067740917205810547 2.5109677314758300781 6 6.3299999237060546875 7 7 9 9.4949998855590820312 10 10 9 8 9 7 6 5.5657143592834472656 5.424285888671875 5.3535714149475097656 5 4 5 5 5 2.80985260009765625 2.8999261856079101562 8 7.659999847412109375 7.3299999237060546875 6 5 2 1.8580000400543212891 1.8580000400543212891 9 10 10.494999885559082031 7.4949998855590820312 6 7 6.659999847412109375 5.7259998321533203125 5.8579998016357421875 5.8662500381469726562 5.7424998283386230469 5.395999908447265625 5.1979999542236328125 9 9 9 10 10.494999885559082031 11 1.5850000381469726562 3 3.1979999542236328125 8 3.5939998626708984375 7 7.4949998855590820312 6 7 7 4.395999908447265625 6 7.2474999427795410156 7.4949998855590820312 7.7424998283386230469 9 8 10 9 7 4.4949998855590820312 7 0.79013800621032714844 0.79013800621032714844 0.79702985286712646484 0.79702985286712646484 0.80392163991928100586 0.80392163991928100586 0.80392163991928100586 0.80392163991928100586 0.81770521402359008789 0.84527242183685302734 0.84527242183685302734 0.84527242183685302734 0.84527242183685302734 0.85905599594116210938 0.85905599594116210938 0.85905599594116210938 0.87336969375610351562 0.88397240638732910156 0.88397240638732910156 0.89457517862319946289 0.90517795085906982422 0.90517795085906982422
14 5.601764678955078125 12 15 14 13 15 13 5.4658823013305664062 5.4464702606201171875 15 14 5.3882350921630859375 5.3688235282897949219 11 11.164999961853027344 11.329999923706054688 12 12.494999885559082031 12.329999923706054688 12.494999885559082031 13 11 10.494999885559082031 10.247499465942382812 14 13 12 9.74250030517578125 9.4949998855590820312 13 12 2.8800001144409179688 2.8767647743225097656 10.197999954223632812 11 14 8.424285888671875 8.5657138824462890625 11 12.494999885559082031 12 2.8347058296203613281 2.8347058296203613281 2.831470489501953125 2.8282353878021240234 10 6 6.2828569412231445312 6.424285888671875 10 11 13 12 10.707142829895019531 10.777856826782226562 12 10 8.4949998855590820312 9 6.6317763328552246094 11 12 9.4949998855590820312 9.3299999237060546875 11 10 13 11.494999885559082031 11.74250030517578125 12 8.4949998855590820312 11 11.494999885559082031 14 12.74250030517578125 12.494999885559082031 15 9 8 9 10 9 5.8614282608032226562 9.4949998855590820312 9 9 9 11 11 11 11 12 12.494999885559082031 13 8.659999847412109375 8.74250030517578125 8.8249998092651367188 8.9074993133544921875 10 10.247499465942382812 11 13 13 13.329999923706054688 14 12.494999885559082031 9.4949998855590820312 9 8.1099996566772460938 8 7.1649999618530273438 11.164999961853027344 10.494999885559082031 10 9.5939998626708984375 11 11.329999923706054688 11 10.329999923706054688 11 11 10.247499465942382812 10.659999847412109375 12 11 10 10.494999885559082031 10 1.9197092056274414062 1.9197092056274414062 1.8845638036727905273 1.8494184017181396484 1.8142728805541992188 1.7791274785995483398 1.4979641437530517578 1.4979641437530517578 1.4979641437530517578 1.4979641437530517578 1.4979641437530517578 1.4979641437530517578 1.4979641437530517578 1.4979641437530517578 1.4979641437530517578 1.4920358657836914062 1.4861078262329101562 1.4861078262329101562 1.4742515087127685547 1.4742515087127685547 1.4623951911926269531 1.4564671516418457031 1.4505388736724853516 1.4505388736724853516 1.4505388736724853516 1.4505388736724853516 1.4446108341217041016 1.4446108341217041016 1.4386826753616333008 1.4386826753616333008 1.4386826753616333008 1.4386826753616333008 1.4386826753616333008 1.4386826753616333008 1.4386826753616333008 1.4386826753616333008 1.4386826753616333008 1.4386826753616333008 10 9 10 8 8.4949998855590820312 10 6.395999908447265625 6.1979999542236328125 5.6806249618530273438 10 8.74250030517578125 8.2474994659423828125 9 11 9 10 7.659999847412109375 7.3299999237060546875 7 4.8485713005065917969 4.7071428298950195312 4.5657143592834472656 5 7 3.9440937042236328125 6 7 3.8916296958923339844 7 7.4949998855590820312 7 9 7 6.7424998283386230469 6.79199981689453125 6.5939998626708984375 6.395999908447265625 6.1979999542236328125 7 6.1649999618530273438 6 6 8 3.4500000476837158203 7 7 6 5.4949998855590820312 5 5 7 2.4790322780609130859 6 6 7 8 9 7.7424998283386230469 10 9 6.79199981689453125 8.4949998855590820312 6 5.8485713005065917969 5.7071428298950195312 5.5657138824462890625 6 5 4.4949998855590820312 5 5.4949998855590820312 5 5 3 5 5.4949998855590820312 5.5939998626708984375 5.1979999542236328125 5 6 7 9 1.8250000476837158203 6 7 9 1.9157500267028808594 1.9157500267028808594 6.3299999237060546875 5.5939998626708984375 5.659999847412109375 5.79199981689453125 5.5939998626708984375 7 6 5 3.9075000286102294922 7 7 10 3 1.5399999618530273438 10.494999885559082031 10 3.395999908447265625 8 8 8.4949998855590820312 7 6.8485713005065917969 7.4949998855590820312 7.4949998855590820312 6.4949998855590820312 8 7.7424998283386230469 7.4949998855590820312 7 7.395999908447265625 7.1979999542236328125 7 4.7424998283386230469 7.4949998855590820312 7 0.79013800621032714844 0.79013800621032714844 0.79013800621032714844 0.79702985286712646484 0.79702985286712646484 0.80392163991928100586 0.80392163991928100586 0.80392163991928100586 0.81770521402359008789 0.81770521402359008789 0.82459700107574462891 0.84527242183685302734 0.84527242183685302734 0.84527242183685302734 0.85216414928436279297 0.85216414928436279297 0.85216414928436279297 0.88397240638732910156 0.88397240638732910156 0.88397240638732910156 0.89457517862319946289 0.90517795085906982422
14.494999885559082031 13 5.5823526382446289062 14 13 13 11 5.4852938652038574219 14 15 14 13 14.494999885559082031 5.3494114875793457031 5.3299999237060546875 11 11.329999923706054688 11.659999847412109375 12 12.494999885559082031 13 11.659999847412109375 10.74250030517578125 11 12 12.329999923706054688 12.197999954223632812 12 10 11 9.2474994659423828125 9 12 2.8735294342041015625 11 11.494999885559082031 11 8.2828569412231445312 8.1414289474487304688 12 11 2.8379411697387695312 2.8379411697387695312 11 11.494999885559082031 12 2.8250000476837158203 6.1414284706115722656 11 12 10 11 11.659999847412109375 13.494999885559082031 10.565713882446289062 10.707142829895019531 10.84857177734375 10 8 9 6.5601315498352050781 10 10 11 9 8 9 11 11 11.247499465942382812 11 8.2474994659423828125 13 13 14 12.494999885559082031 12.247499465942382812 12 11 9 7 9 9 5.8485713005065917969 8.659999847412109375 8.659999847412109375 8.74250030517578125 8.659999847412109375 8 9 8 8.4949998855590820312 11 11 8.4949998855590820312 8.5774993896484375 13 10 12 11 12 10.494999885559082031 10.74250030517578125 11 13 12 12 10 9.4949998855590820312 9 7.4949998855590820312 7 11 10 9.659999847412109375 9.395999908447265625 10 10.74250030517578125 10 10.494999885559082031 10 9.4949998855590820312 10 10.329999923706054688 11 12 10 10 9.3299999237060546875 9 1.8845638036727905273 1.8845638036727905273 1.8494184017181396484 1.8142728805541992188 1.7791274785995483398 1.7439820766448974609 1.4979641437530517578 1.4979641437530517578 1.4979641437530517578 1.4979641437530517578 1.4979641437530517578 1.4979641437530517578 1.4979641437530517578 1.4920358657836914062 1.4861078262329101562 1.4861078262329101562 1.4801796674728393555 1.4742515087127685547 1.4683233499526977539 1.4683233499526977539 1.4564671516418457031 1.4505388736724853516 1.4505388736724853516 1.4505388736724853516 1.4446108341217041016 1.4446108341217041016 1.4386826753616333008 1.4386826753616333008 1.4386826753616333008 1.4386826753616333008 1.4386826753616333008 1.4386826753616333008 1.4386826753616333008 1.4386826753616333008 1.4386826753616333008 1.4386826753616333008 1.4386826753616333008 9 8 10 10 10 9 7 6.5939998626708984375 5.7424998283386230469 11 10 11 8 8.4949998855590820312 10 9 6.659999847412109375 6.3299999237060546875 6 9 7 6 5.4949998855590820312 6 5 6 8 3.9113035202026367188 3.9309778213500976562 3.9506518840789794922 8 9.4949998855590820312 7.4949998855590820312 7 7 6.79199981689453125 6.5939998626708984375 7 6.3299999237060546875 6.371250152587890625 6.659999847412109375 6.3299999237060546875 8 3.5399999618530273438 5 6 6.4949998855590820312 6 5.4949998855590820312 6 6 8 2.4470968246459960938 5 6 6.2474999427795410156 6.7424998283386230469 7.4949998855590820312 6.395999908447265625 6.5939998626708984375 7.79199981689453125 8 8 6 5.7778568267822265625 7 6 5 5.395999908447265625 5.1979999542236328125 5.3299999237060546875 5.1979999542236328125 5 5 5 5.5939998626708984375 5.5939998626708984375 5.395999908447265625 7 6.4949998855590820312 6 5 4 1.7920000553131103516 5 11 1.9157500267028808594 1.9157500267028808594 6 5.4619998931884765625 5.659999847412109375 8 8 7 5 5 3.8250000476837158203 3.7424998283386230469 3.659999847412109375 3.4949998855590820312 3.4949998855590820312 12 1.495000004768371582 9.4949998855590820312 8 6.2828569412231445312 6.424285888671875 6.5657143592834472656 6.7071428298950195312 8 8 7 6.7424998283386230469 7.3299999237060546875 8.4949998855590820312 7.79199981689453125 7.5939998626708984375 8 7 6 7 8 9 0.79013800621032714844 0.79013800621032714844 0.79013800621032714844 0.79013800621032714844 0.79702985286712646484 0.79702985286712646484 0.80392163991928100586 0.80392163991928100586 0.81770521402359008789 0.81770521402359008789 0.81770521402359008789 0.82459700107574462891 0.84527242183685302734 0.84527242183685302734 0.84527242183685302734 0.84527242183685302734 0.85216414928436279297 0.87336969375610351562 0.88397240638732910156 0.88397240638732910156 0.88397240638732910156 0.88397240638732910156
14 15 5.5629410743713378906 14 13 10 5.5047059059143066406 14 11 12 11 12 14 13 5.3105883598327636719 7 11 11 11 11.494999885559082031 12 11.659999847412109375 11.329999923706054688 11 14 12.659999847412109375 12.395999908447265625 12.197999954223632812 12 10 12 12 12.494999885559082031 2.8702940940856933594 2.8670587539672851562 2.8605883121490478516 13 11 11 8 2.8444118499755859375 2.8411765098571777344 10 10.164999961853027344 13 12 2.8217647075653076172 2.8217647075653076172 12 12 10.494999885559082031 11 11.329999923706054688 13 10.424285888671875 11.659999847412109375 12 9 7.659999847412109375 8.4949998855590820312 6.4884867668151855469 8 8.4949998855590820312 10 11 11 6.8857893943786621094 8 9 10 8 10 11 10.494999885559082031 11 12 12 11.74250030517578125 11.494999885559082031 10 8 6.659999847412109375 9 5.8357143402099609375 8.3299999237060546875 8 8.4949998855590820312 8.3299999237060546875 7.4949998855590820312 7.4949998855590820312 7 8 10 8.3299999237060546875 8.4125003814697265625 12 12 11 12 12 11.494999885559082031 12 10.707142829895019531 10.84857177734375 14 11.659999847412109375 11.659999847412109375 11.329999923706054688 9.659999847412109375 9.3299999237060546875 9 6.9192857742309570312 6.8485713005065917969 12 9.3299999237060546875 9.1979999542236328125 10.494999885559082031 10.494999885559082031 11 9.659999847412109375 9.3299999237060546875 9 9 10 11.494999885559082031 11.494999885559082031 11 9.659999847412109375 9.4949998855590820312 9 1.8845638036727905273 1.8494184017181396484 1.8142728805541992188 1.8142728805541992188 1.7791274785995483398 1.7439820766448974609 1.4979641437530517578 1.4979641437530517578 1.4979641437530517578 1.4979641437530517578 1.4979641437530517578 1.4979641437530517578 1.4920358657836914062 1.4861078262329101562 1.4861078262329101562 1.4801796674728393555 1.4742515087127685547 1.4742515087127685547 1.4683233499526977539 1.4623951911926269531 1.4564671516418457031 1.4505388736724853516 1.4505388736724853516 1.4446108341217041016 1.4446108341217041016 1.4386826753616333008 1.4386826753616333008 1.4386826753616333008 1.4386826753616333008 1.4386826753616333008 1.4386826753616333008 1.4386826753616333008 1.4386826753616333008 1.4386826753616333008 1.4386826753616333008 1.4386826753616333008 7 9 8 7.7424998283386230469 8 8 7.4949998855590820312 7 6.79199981689453125 5.80437469482421875 5.79199981689453125 6 7 7.3299999237060546875 8 11 7.4949998855590820312 7 6.659999847412109375 8 10 11 9 6 5.3299999237060546875 5.4949998855590820312 6.2474999427795410156 10 6 6 5 3.9703259468078613281 9 8 7.6187496185302734375 7.2474999427795410156 7 7.4949998855590820312 7 6.4949998855590820312 6.5774998664855957031 6.5499997138977050781 6.7699999809265136719 6 3.6300001144409179688 5 5.4949998855590820312 5.7071428298950195312 5.424285888671875 5.2828569412231445312 5.1414284706115722656 5 3 2.4151613712310791016 2.3832259178161621094 8 6.4949998855590820312 7.4949998855590820312 7.2474999427795410156 6.1979999542236328125 7 8 7.5939998626708984375 7.6929998397827148438 8 7 8 6 6 5.5939998626708984375 5.79199981689453125 5.659999847412109375 5.395999908447265625 5.395999908447265625 6 6.4949998855590820312 5.4949998855590820312 6 5.5939998626708984375 7 6.1979999542236328125 6 5.3299999237060546875 4.4949998855590820312 8 1.7590000629425048828 1.7260000705718994141 1.8415000438690185547 5 5.3299999237060546875 6.5939998626708984375 6.79199981689453125 8 7 5.4949998855590820312 5.3299999237060546875 6 7 6.2474999427795410156 6 9 10 10 1.4500000476837158203 9 6.1414284706115722656 6.1979999542236328125 7 7.4949998855590820312 6.79199981689453125 7 8 6.4949998855590820312 6.4949998855590820312 7 7.659999847412109375 7.6187496185302734375 7.6187496185302734375 7.2474999427795410156 8 8 7.659999847412109375 7.4949998855590820312 8 0.79013800621032714844 0.79013800621032714844 0.79013800621032714844 0.79013800621032714844 0.79013800621032714844 0.79702985286712646484 0.79702985286712646484 0.80392163991928100586 0.80392163991928100586 0.81770521402359008789 0.81770521402359008789 0.81770521402359008789 0.82459700107574462891 0.83148878812789916992 0.83838057518005371094 0.83838057518005371094 0.83838057518005371094 0.83838057518005371094 0.83838057518005371094 0.88397240638732910156 0.88397240638732910156 0.88397240638732910156
12 5.599338531494140625 5.5807352066040039062 5.5621323585510253906 5.543529510498046875 5.5241174697875976562 12 6.4949998855590820312 10 10.197999954223632812 10.395999908447265625 10.593999862670898438 11 13 5.2911763191223144531 7.3299999237060546875 10 10.494999885559082031 11 10.494999885559082031 10.74250030517578125 12 14 15 12.593999862670898438 12.395999908447265625 12.593999862670898438 12.593999862670898438 12 10.329999923706054688 12 12.329999923706054688 13 14 2.8638236522674560547 2.8605883121490478516 2.8573529720306396484 2.8541176319122314453 2.8508825302124023438 2.8476471900939941406 2.8444118499755859375 9 11 11 10.329999923706054688 11.494999885559082031 11 2.8185293674468994141 2.8152942657470703125 11 10 12 10.141428947448730469 10.282856941223144531 11 11.329999923706054688 10 10 7.3299999237060546875 8 6.4168419837951660156 6.4689474105834960938 8 10 10 9 6.7815785408020019531 8 8 10 6.9378943443298339844 8 9 10 10.494999885559082031 12 12.494999885559082031 12 11.247499465942382812 11 11 6.3299999237060546875 6 5.822856903076171875 7 5.8678569793701171875 8.2474994659423828125 8 7 7 5.8999996185302734375 7 10.494999885559082031 8.2474994659423828125 11.329999923706054688 11.494999885559082031 11.659999847412109375 11.824999809265136719 11.659999847412109375 11 13 10.565713882446289062 10.424285888671875 12 12.329999923706054688 13 11.659999847412109375 13 11 10.494999885559082031 10 8 6.7778568267822265625 6.7071428298950195312 10 9 10 10.247499465942382812 10 9.395999908447265625 9.1979999542236328125 9 8 9 11 10.494999885559082031 11 10.74250030517578125 11 11 11 9 1.8142728805541992188 1.8142728805541992188 1.7439820766448974609 1.7439820766448974609 1.4979641437530517578 1.4979641437530517578 1.4979641437530517578 1.4979641437530517578 1.4979641437530517578 1.4920358657836914062 1.4861078262329101562 1.4861078262329101562 1.4801796674728393555 1.4742515087127685547 1.4742515087127685547 1.4742515087127685547 1.4683233499526977539 1.4623951911926269531 1.4564671516418457031 1.4505388736724853516 1.4446108341217041016 1.4446108341217041016 1.4386826753616333008 1.4386826753616333008 1.4386826753616333008 1.4327545166015625 1.4268263578414916992 1.4268263578414916992 1.4268263578414916992 1.4268263578414916992 1.4268263578414916992 1.4268263578414916992 1.4268263578414916992 1.4268263578414916992 8 12 8 7.4949998855590820312 7.2474999427795410156 8 7.4949998855590820312 7 7 8 5.8662500381469726562 5.8414998054504394531 5.8909997940063476562 8 7.659999847412109375 10 8 9 8 11 10.329999923706054688 11 10 5.659999847412109375 6.7424998283386230469 6.4949998855590820312 8 9 6.2474999427795410156 11 8 8.4949998855590820312 4 7 7.4949998855590820312 8 8 8 6.8249998092651367188 6.659999847412109375 6.7837495803833007812 7 3.8099999427795410156 3.7200000286102294922 5 6 6 5.5657143592834472656 6 5.6364283561706542969 6 5 3.1099998950958251953 7 2.3512902259826660156 2.3193547725677490234 2.2874193191528320312 6 7 6 7 7 7.395999908447265625 7.1979999542236328125 7.4949998855590820312 8 7.659999847412109375 7 7 6 6 5.79199981689453125 5.5939998626708984375 5.5939998626708984375 8 7 6 5.79199981689453125 6 6.3564000129699707031 6.395999908447265625 7 5.659999847412109375 4.659999847412109375 4.3299999237060546875 4 1.6930000782012939453 1.76725006103515625 7 6.1979999542236328125 6.395999908447265625 7.4949998855590820312 8 7 5.659999847412109375 7 9 7 6.4949998855590820312 7 10 1.3600000143051147461 1.4049999713897705078 9 9 6 6 6.395999908447265625 6.5939998626708984375 8 8 6 6.2474999427795410156 7 7 7.4949998855590820312 8.3299999237060546875 8 7.4949998855590820312 7.6187496185302734375 8 7.4949998855590820312 7.3299999237060546875 7 0.79013800621032714844 0.79013800621032714844 0.79013800621032714844 0.79013800621032714844 0.79013800621032714844 0.79013800621032714844 0.79702985286712646484 0.79702985286712646484 0.80392163991928100586 0.81081342697143554688 0.81770521402359008789 0.81770521402359008789 0.81770521402359008789 0.82459700107574462891 0.82459700107574462891 0.83838057518005371094 0.83838057518005371094 0.83838057518005371094 0.83838057518005371094 0.83838057518005371094 0.83838057518005371094 0.83838057518005371094
