ncols         301
nrows         32
xllcorner     696000
yllcorner     8199000
cellsize      500.000000
NODATA_value  -9999.000000
1026.756	1026.844	1026.268	1025.736	1026.004	1026.392	1026.008	1026.048	1026.032	1026.204	1026.220	1026.480	1026.504	1026.912	1026.820	1026.716	1027.396	1027.648	1027.252	1026.936	1026.428	1026.728	1026.700	1026.460	1026.652	1027.588	1028.288	1028.652	1028.492	1028.620	1028.820	1028.584	1028.736	1028.700	1028.340	1028.736	1028.868	1029.020	1029.404	1029.048	1028.656	1032.560	1037.672	1025.712	1025.540	1027.156	1031.456	1039.512	1040.464	1038.972	1033.452	1029.656	1026.104	1019.860	1013.668	1010.552	1007.976	1004.868	1002.500	1002.272	1001.120	1001.236	1001.756	1016.124	1021.616	1020.532	1019.296	1022.600	1026.124	1020.932	1017.876	1018.180	1020.772	1022.932	1007.416	1000.296	1000.080	999.652	999.556	999.596	999.532	999.660	999.584	999.772	1000.104	1000.092	1000.068	1000.944	1001.252	1000.960	1000.820	1000.660	1000.784	1000.308	1000.684	1000.420	999.136	1001.928	1002.048	1002.012	1004.144	1013.832	1021.536	1023.676	1028.104	1032.564	1033.184	1039.248	1048.240	1025.252	1020.640	1023.884	1040.020	1042.060	1040.628	1039.248	1033.112	1031.032	1032.100	1032.704	1041.396	1043.696	1039.936	1029.680	1021.084	1024.592	1026.788	1037.048	1040.552	1034.136	1021.800	1017.152	1017.464	1018.968	1018.964	1018.268	1015.824	1005.376	1005.868	1006.120	1006.652	1006.428	1007.240	1007.448	1006.500	1016.652	1022.228	1025.072	1027.460	1029.776	1031.244	1032.848	1034.700	1036.240	1037.596	1038.632	1039.884	1040.664	1041.568	1039.752	1040.708	1044.416	1045.884	1046.868	1046.956	1047.972	1048.748	1049.772	1050.504	1051.008	1052.180	1052.456	1052.592	1053.080	1053.988	1053.832	1054.724	1055.156	1052.880	1052.052	1055.336	1057.724	1058.664	1059.524	1060.148	1060.588	1061.656	1061.724	1061.996	1061.812	1062.036	1062.216	1062.160	1062.060	1060.228	1059.884	1059.740	1058.804	1058.572	1056.248	1058.208	1061.152	1061.484	1061.748	1061.832	1060.736	1059.968	1058.500	1055.132	1056.296	1056.472	1063.088	1065.440	1066.436	1067.736	1068.768	1069.112	1070.288	1070.768	1070.488	1069.912	1070.084	1069.660	1068.588	1068.440	1069.128	1071.880	1072.940	1074.896	1075.128	1075.316	1075.544	1074.580	1073.256	1071.324	1072.044	1073.544	1074.592	1075.456	1076.980	1079.412	1081.716	1083.692	1084.476	1084.924	1085.256	1085.344	1085.872	1085.740	1085.288	1084.980	1084.792	1092.348	1092.160	1089.888	1087.152	1083.156	1077.400	1072.316	1072.036	1070.748	1092.692	1092.844	1089.924	1084.244	1078.516	1065.388	1043.648	1034.964	1028.628	1025.388	1022.244	1022.264	1032.896	1052.008	1061.992	1071.736	1081.720	1087.016	1090.756	1087.856	1083.348	1088.344	1094.152	1098.140	1086.380	1081.212	1081.960	1083.892	1085.952	1087.464	1089.360	1090.344	1091.336	1092.944	1093.588	1093.516	1093.024	1095.856	1097.436	1097.040
1026.544	1026.604	1026.472	1026.364	1026.616	1026.420	1026.044	1026.256	1026.340	1026.048	1025.824	1026.192	1026.504	1027.048	1026.820	1026.396	1026.624	1026.980	1026.752	1026.812	1026.772	1026.188	1026.056	1025.992	1026.368	1027.084	1027.504	1026.868	1027.636	1028.380	1028.124	1028.172	1028.528	1028.204	1028.396	1028.276	1028.252	1029.036	1029.116	1028.752	1028.040	1029.468	1031.956	1034.664	1027.280	1028.412	1030.116	1031.280	1033.820	1038.040	1032.684	1029.928	1025.592	1017.992	1013.872	1008.988	1009.836	1008.728	1005.096	1002.036	1002.316	1001.164	1003.852	1013.568	1021.584	1020.992	1020.528	1018.604	1022.636	1023.884	1017.684	1019.468	1022.616	1021.200	1009.992	999.488	1000.048	1000.024	999.500	999.476	999.544	999.844	999.580	999.960	1000.016	999.996	1000.356	1000.932	1000.896	1000.840	1000.772	1000.804	1000.496	1000.060	1000.148	1000.256	998.772	1001.372	1001.796	1001.408	1000.912	1003.104	1011.648	1022.032	1033.596	1036.324	1036.180	1044.900	1051.428	1033.000	1023.952	1028.400	1041.972	1044.404	1044.696	1035.772	1029.352	1031.040	1031.300	1031.440	1041.348	1040.460	1033.532	1025.100	1022.972	1025.836	1026.212	1035.896	1029.708	1020.304	1011.936	1007.692	1011.516	1014.248	1013.800	1013.908	1005.064	1005.168	1006.108	1006.276	1006.588	1006.016	1006.368	1007.476	1012.240	1021.116	1024.020	1025.828	1027.772	1029.268	1030.232	1032.364	1033.364	1031.100	1031.468	1030.724	1032.568	1033.232	1037.352	1042.120	1044.092	1045.480	1046.144	1047.012	1048.092	1049.288	1049.388	1049.680	1050.508	1050.892	1051.372	1052.000	1052.036	1052.360	1053.136	1054.200	1054.832	1054.456	1054.236	1053.468	1056.828	1058.688	1059.168	1059.564	1060.020	1060.500	1060.832	1061.456	1061.708	1061.732	1061.592	1061.256	1061.148	1060.656	1060.068	1059.216	1056.492	1056.088	1055.992	1057.620	1060.140	1061.200	1061.776	1061.720	1061.320	1060.028	1059.420	1057.464	1054.292	1052.548	1053.368	1061.576	1065.336	1066.304	1067.380	1068.920	1069.476	1069.648	1070.268	1069.896	1068.936	1068.516	1068.580	1068.296	1069.528	1071.296	1072.756	1074.412	1075.064	1075.116	1075.224	1074.804	1073.508	1072.276	1072.848	1073.416	1074.600	1074.156	1074.484	1075.012	1075.880	1081.024	1083.192	1083.972	1084.580	1084.232	1084.352	1084.348	1083.936	1084.656	1084.700	1084.044	1089.004	1090.300	1089.332	1086.248	1082.924	1081.548	1076.184	1070.556	1078.088	1090.016	1094.844	1092.700	1086.192	1079.864	1067.196	1044.448	1037.428	1026.756	1022.348	1022.716	1023.848	1035.640	1051.920	1061.044	1071.280	1080.540	1086.680	1091.228	1088.096	1082.368	1088.408	1092.704	1092.532	1089.480	1085.660	1084.356	1085.596	1087.004	1089.012	1090.060	1091.164	1091.852	1092.916	1093.328	1092.968	1092.624	1092.304	1094.368	1093.508
1026.052	1026.356	1026.472	1026.572	1026.556	1026.028	1026.076	1026.428	1026.176	1025.692	1025.152	1025.960	1026.212	1026.552	1026.552	1026.316	1026.344	1026.444	1026.256	1026.500	1026.760	1025.920	1025.952	1026.176	1026.264	1026.852	1026.888	1026.516	1027.040	1027.080	1027.320	1027.340	1027.496	1027.112	1027.444	1027.668	1027.528	1027.780	1028.984	1028.292	1027.972	1029.408	1031.980	1035.280	1026.616	1028.044	1029.416	1031.328	1034.092	1035.404	1034.100	1032.700	1028.592	1023.044	1015.192	1011.304	1007.992	1009.700	1008.504	1004.488	1002.704	1002.628	1000.800	1009.040	1016.136	1020.892	1021.808	1019.176	1020.908	1025.472	1022.404	1021.536	1024.732	1022.428	1011.404	999.308	999.860	1000.372	999.320	999.356	999.376	999.908	999.800	1000.528	1000.032	999.792	1000.432	1000.460	1000.452	1000.692	1000.768	1000.304	1000.420	1000.256	999.960	999.884	998.824	1001.556	1001.344	1001.620	1001.392	1000.816	1000.280	1021.536	1031.420	1036.304	1033.240	1035.544	1040.428	1035.048	1026.780	1030.324	1037.608	1044.124	1045.900	1032.044	1027.648	1029.192	1029.896	1030.280	1037.388	1033.236	1026.228	1024.012	1023.032	1024.840	1027.684	1033.916	1023.932	1008.492	1007.996	1009.688	1010.344	1011.572	1013.372	1012.516	1005.044	1005.016	1006.172	1006.344	1005.584	1005.820	1010.504	1011.944	1017.364	1023.120	1024.680	1025.908	1026.388	1026.032	1026.400	1024.540	1023.316	1029.220	1033.724	1036.452	1038.484	1039.424	1042.220	1042.924	1044.204	1046.020	1046.908	1047.664	1048.376	1049.840	1050.140	1050.092	1050.456	1049.912	1050.028	1049.496	1049.528	1050.404	1051.884	1053.348	1053.144	1052.936	1055.068	1053.976	1054.572	1058.612	1059.400	1059.684	1060.072	1060.132	1060.944	1060.880	1060.968	1060.852	1060.748	1060.160	1059.720	1059.216	1057.804	1057.400	1057.556	1059.796	1060.860	1060.876	1061.340	1061.416	1061.460	1060.844	1060.816	1059.572	1058.476	1055.260	1050.768	1051.576	1052.232	1060.652	1062.844	1065.616	1066.636	1068.440	1067.780	1068.888	1069.420	1070.292	1070.668	1070.348	1070.528	1070.840	1071.932	1072.244	1073.200	1074.484	1074.544	1074.284	1074.608	1074.380	1072.736	1072.736	1073.624	1074.748	1073.600	1073.112	1073.420	1074.168	1078.060	1081.112	1082.304	1082.860	1083.368	1083.512	1083.352	1082.944	1083.260	1083.864	1084.348	1084.076	1083.648	1085.444	1087.316	1084.356	1083.532	1084.600	1080.020	1073.472	1076.756	1092.412	1096.000	1091.964	1086.620	1079.524	1066.636	1045.704	1037.332	1025.452	1022.052	1021.892	1028.772	1044.436	1058.032	1063.268	1067.648	1072.240	1083.340	1089.548	1088.496	1083.892	1086.480	1091.068	1091.012	1091.324	1090.692	1089.424	1087.940	1088.140	1088.960	1089.700	1091.428	1092.464	1093.176	1093.516	1093.164	1092.260	1092.580	1093.672	1093.888
1026.268	1026.420	1026.188	1026.336	1026.348	1025.784	1025.400	1025.868	1025.352	1024.896	1024.960	1025.672	1026.120	1026.528	1026.504	1026.548	1026.476	1026.208	1026.332	1026.264	1026.080	1025.984	1026.204	1026.200	1026.320	1025.916	1025.928	1026.032	1026.080	1027.028	1026.892	1026.912	1026.776	1026.968	1027.416	1027.820	1028.584	1028.972	1028.804	1028.040	1029.768	1029.968	1032.384	1037.100	1026.312	1024.792	1030.580	1034.652	1032.716	1033.552	1037.200	1036.884	1030.812	1023.456	1015.532	1012.200	1007.844	1010.120	1009.488	1008.428	1003.640	1000.184	1001.148	1002.812	1013.996	1020.960	1022.504	1022.936	1023.020	1027.512	1016.700	1018.264	1017.588	1017.224	1013.916	999.384	999.452	999.928	999.264	999.192	999.552	999.480	1000.444	1000.900	1000.100	1000.192	1000.128	1000.220	1000.216	1000.744	1000.360	1000.316	1000.308	1000.296	1000.360	999.612	999.464	1001.524	1001.484	1001.692	1001.088	1000.596	1000.500	1008.236	1023.000	1033.836	1033.736	1027.584	1027.524	1026.544	1025.080	1029.300	1034.800	1041.364	1042.364	1026.916	1024.636	1027.108	1028.452	1029.012	1030.092	1025.492	1020.992	1021.132	1022.080	1022.840	1025.028	1029.192	1017.236	1008.864	1009.588	1011.408	1013.032	1013.916	1012.888	1009.044	1004.924	1005.172	1005.476	1005.180	1005.752	1007.708	1010.016	1010.204	1013.972	1014.972	1014.672	1015.220	1016.124	1018.144	1020.316	1026.440	1029.472	1035.872	1036.272	1037.104	1039.060	1040.024	1041.660	1042.972	1044.276	1046.440	1047.300	1047.936	1048.636	1049.348	1049.988	1050.136	1050.296	1049.500	1047.896	1044.912	1044.048	1045.480	1049.944	1051.204	1052.328	1053.792	1055.080	1055.856	1056.944	1058.484	1058.932	1059.328	1059.920	1060.392	1060.788	1060.060	1059.640	1058.800	1058.384	1059.060	1059.244	1058.116	1059.184	1060.844	1060.704	1060.764	1061.200	1061.180	1061.140	1061.000	1061.220	1060.556	1060.452	1059.008	1057.112	1054.132	1051.424	1054.656	1056.672	1059.300	1060.352	1061.576	1063.788	1066.124	1067.272	1068.636	1069.940	1071.496	1072.076	1072.264	1072.184	1072.080	1073.004	1073.276	1074.100	1074.528	1074.740	1074.460	1075.248	1074.088	1072.772	1071.892	1073.480	1073.576	1073.340	1073.884	1075.168	1077.360	1079.912	1080.832	1081.912	1082.516	1083.056	1083.296	1082.584	1082.440	1083.100	1083.404	1083.784	1083.304	1082.724	1084.176	1086.760	1083.748	1083.568	1085.040	1080.896	1076.940	1074.800	1090.060	1094.052	1091.180	1085.192	1078.832	1065.832	1044.836	1029.616	1024.208	1021.528	1021.536	1030.660	1044.072	1055.968	1060.608	1065.588	1075.916	1080.304	1085.832	1087.880	1086.444	1082.684	1085.880	1087.732	1090.536	1090.956	1091.840	1090.008	1089.944	1090.840	1090.752	1089.340	1092.724	1093.052	1093.600	1093.188	1092.388	1091.524	1092.040	1092.440
1026.024	1026.120	1026.312	1026.432	1026.028	1025.692	1026.060	1026.268	1025.800	1025.800	1025.608	1025.572	1025.972	1026.336	1026.660	1026.272	1026.028	1025.940	1025.804	1025.884	1025.636	1026.084	1026.320	1025.748	1025.544	1025.684	1025.724	1025.872	1025.740	1025.944	1026.152	1026.412	1026.588	1027.000	1027.132	1028.076	1028.968	1028.580	1027.908	1027.732	1029.372	1030.020	1031.264	1039.160	1029.816	1022.644	1030.496	1034.652	1032.596	1031.520	1037.792	1039.056	1027.880	1021.464	1015.700	1013.240	1009.664	1007.516	1006.872	1006.232	1005.904	1002.632	1001.556	1000.080	1004.832	1018.584	1017.784	1019.564	1027.360	1023.712	1015.004	1015.396	1016.408	1015.052	1014.872	1002.100	999.312	999.460	999.176	999.144	999.028	999.380	1000.356	1000.760	1000.252	1000.168	1000.360	1000.600	1000.184	999.812	1000.096	1000.068	999.976	999.936	1000.140	998.568	1000.528	1001.356	1002.240	1001.788	1001.172	1000.548	1000.124	1012.912	1023.316	1033.856	1041.936	1033.572	1020.572	1020.820	1024.396	1036.480	1038.468	1034.740	1030.772	1018.224	1017.436	1025.192	1026.696	1026.924	1025.656	1021.296	1019.820	1019.912	1021.408	1023.080	1027.816	1024.072	1008.244	1012.392	1013.580	1013.972	1013.660	1013.248	1012.184	1008.296	1004.844	1005.672	1005.680	1005.108	1005.284	1007.032	1010.576	1012.548	1019.528	1020.964	1021.048	1022.316	1024.576	1027.212	1029.320	1031.088	1032.500	1036.720	1037.504	1038.548	1038.792	1039.836	1041.004	1043.016	1044.600	1046.708	1046.936	1047.500	1047.840	1048.732	1049.592	1049.312	1048.960	1047.436	1044.544	1043.628	1043.484	1045.092	1047.356	1048.432	1049.088	1055.472	1055.864	1056.144	1057.660	1058.688	1059.132	1059.348	1059.748	1060.260	1064.444	1061.452	1058.020	1056.472	1057.372	1057.132	1058.252	1059.236	1061.360	1061.196	1061.148	1060.848	1060.980	1060.864	1060.648	1060.276	1060.476	1059.776	1059.516	1058.804	1056.436	1049.544	1050.724	1054.220	1057.440	1057.596	1058.124	1059.068	1061.316	1065.308	1067.584	1068.564	1069.460	1070.744	1071.328	1071.940	1073.056	1073.152	1073.804	1074.140	1074.396	1074.952	1074.552	1074.352	1074.088	1073.984	1072.452	1072.128	1072.984	1073.988	1075.168	1076.132	1077.644	1079.048	1079.664	1080.664	1081.232	1082.248	1082.872	1083.084	1085.124	1086.500	1084.280	1082.364	1082.256	1082.248	1081.984	1082.116	1084.928	1082.932	1082.440	1083.532	1080.360	1076.264	1072.656	1087.932	1093.188	1090.404	1084.544	1076.724	1064.316	1043.204	1030.304	1023.440	1021.320	1021.608	1028.340	1045.068	1055.952	1059.968	1063.944	1079.444	1082.660	1083.640	1082.412	1080.976	1081.184	1082.352	1082.144	1084.164	1085.948	1089.440	1089.812	1091.016	1092.760	1091.628	1091.500	1091.160	1091.256	1091.664	1091.564	1090.888	1089.768	1088.892	1089.032
1025.788	1026.024	1025.992	1025.936	1025.460	1025.544	1025.644	1025.944	1025.908	1025.784	1025.912	1025.520	1025.704	1025.896	1025.840	1025.808	1025.640	1025.584	1025.356	1025.364	1025.408	1025.776	1025.736	1025.420	1025.116	1025.424	1025.620	1025.580	1025.488	1026.392	1026.080	1026.256	1026.384	1027.040	1027.404	1027.944	1028.172	1027.528	1027.864	1028.268	1030.268	1030.564	1030.876	1035.476	1032.068	1024.040	1030.064	1032.028	1032.332	1030.380	1037.692	1037.084	1022.936	1019.264	1015.716	1014.360	1013.212	1011.816	1011.588	1009.240	1009.256	1006.696	1000.436	1000.512	1004.456	1009.452	1014.112	1019.836	1022.148	1016.360	1016.908	1015.020	1015.292	1015.316	1016.828	1009.984	1000.096	999.476	999.208	998.848	998.700	999.556	1000.768	1000.212	1000.140	1000.136	1000.504	1000.288	1000.876	1000.456	999.188	1000.184	1000.484	1000.032	999.628	1001.140	1001.596	1001.660	1002.244	1001.488	1000.968	1000.572	999.644	1011.552	1023.592	1032.400	1044.172	1041.420	1024.420	1024.572	1027.984	1036.684	1043.852	1040.740	1034.412	1018.464	1016.360	1023.404	1024.576	1024.636	1021.432	1019.608	1019.780	1019.304	1019.236	1020.844	1022.452	1010.116	1011.148	1013.280	1013.088	1013.236	1013.040	1012.852	1008.980	1006.720	1004.836	1005.604	1005.380	1005.252	1005.764	1008.208	1016.368	1020.528	1025.108	1026.168	1027.060	1027.476	1029.196	1029.944	1031.032	1032.448	1034.256	1037.208	1038.388	1038.972	1040.000	1040.916	1041.996	1043.348	1044.052	1046.024	1046.568	1046.848	1047.580	1048.132	1048.352	1048.428	1046.964	1045.996	1047.248	1046.928	1046.524	1048.124	1047.572	1046.848	1046.900	1055.788	1056.116	1057.060	1058.308	1058.736	1059.132	1059.244	1059.436	1059.840	1061.072	1060.144	1055.320	1054.828	1056.924	1059.456	1060.008	1060.568	1061.052	1061.024	1061.060	1060.836	1060.640	1060.424	1059.756	1059.836	1059.292	1058.916	1058.920	1058.220	1054.908	1048.660	1050.984	1053.288	1056.372	1056.908	1058.288	1059.148	1062.800	1065.624	1066.980	1068.000	1068.860	1070.104	1070.468	1071.624	1072.764	1073.348	1073.664	1074.304	1074.656	1074.508	1074.228	1073.580	1073.620	1073.252	1072.184	1071.928	1072.708	1075.412	1075.868	1076.160	1077.224	1078.412	1078.748	1079.772	1080.948	1082.104	1083.460	1089.132	1093.188	1085.860	1080.964	1080.360	1080.312	1081.352	1081.468	1081.112	1082.020	1082.356	1080.816	1082.244	1080.796	1077.532	1069.776	1086.640	1092.076	1088.908	1082.208	1074.868	1062.420	1039.380	1031.216	1024.348	1021.432	1022.380	1030.032	1043.420	1054.920	1060.328	1071.536	1077.116	1081.104	1082.972	1081.224	1081.780	1083.412	1085.748	1086.816	1084.316	1085.296	1088.668	1090.968	1091.520	1096.236	1101.192	1101.984	1097.108	1095.228	1094.860	1093.840	1092.560	1091.624	1089.776	1087.496
1025.648	1025.688	1026.136	1025.728	1025.056	1025.236	1024.920	1024.880	1025.188	1025.716	1025.484	1025.384	1025.584	1025.580	1025.584	1025.372	1025.372	1025.136	1025.308	1025.160	1024.984	1025.260	1025.356	1024.896	1024.944	1025.132	1025.708	1025.312	1025.360	1026.308	1026.320	1026.440	1026.792	1027.136	1027.936	1028.548	1029.012	1029.360	1029.924	1029.588	1030.876	1031.152	1031.360	1032.076	1031.256	1026.840	1030.148	1032.260	1034.492	1030.424	1036.568	1038.652	1024.504	1019.332	1016.300	1015.556	1014.680	1013.364	1014.236	1012.872	1009.360	1006.724	1001.680	1000.780	1000.796	1004.784	1008.324	1010.424	1011.336	1011.656	1017.736	1014.512	1014.164	1014.508	1017.288	1014.556	1000.464	999.576	998.784	999.564	999.196	999.308	999.864	999.784	999.384	999.840	999.792	999.368	1000.504	1000.028	999.700	999.700	1000.488	1000.760	1000.796	1002.148	1001.532	1001.488	1001.524	1000.888	1000.828	1000.420	1000.308	1002.644	1016.324	1028.348	1036.592	1040.008	1029.272	1024.336	1028.580	1035.596	1042.624	1046.828	1039.180	1020.900	1020.144	1023.752	1023.516	1025.336	1019.192	1017.152	1016.572	1016.152	1013.228	1009.744	1007.644	1012.128	1011.632	1012.040	1012.044	1012.388	1011.856	1008.228	1006.160	1005.784	1004.836	1005.208	1005.192	1005.428	1005.448	1008.960	1019.708	1022.668	1026.636	1027.896	1028.628	1029.324	1030.780	1031.684	1033.172	1034.144	1035.984	1037.732	1038.696	1039.592	1040.084	1040.784	1041.764	1043.040	1044.148	1045.712	1046.468	1046.856	1046.820	1047.108	1047.424	1048.388	1047.020	1046.580	1048.228	1049.780	1049.432	1049.792	1049.428	1051.088	1053.852	1056.096	1056.336	1056.832	1057.900	1058.136	1058.660	1059.016	1059.260	1058.212	1056.396	1051.560	1048.884	1054.692	1058.628	1059.052	1059.608	1060.036	1060.980	1061.140	1060.976	1060.108	1059.636	1059.704	1059.336	1059.256	1058.156	1057.568	1056.924	1053.952	1046.072	1046.664	1050.156	1053.988	1058.648	1060.060	1061.492	1063.100	1064.720	1065.552	1066.728	1067.620	1068.564	1069.904	1070.168	1071.508	1072.212	1072.828	1073.552	1073.772	1074.216	1074.060	1073.616	1073.076	1072.332	1071.104	1070.972	1072.212	1073.164	1075.200	1075.648	1076.632	1077.028	1077.940	1078.740	1079.872	1080.608	1081.332	1082.468	1086.956	1093.188	1079.708	1074.372	1075.804	1078.164	1079.812	1080.832	1080.588	1080.104	1080.276	1079.084	1079.236	1078.512	1077.044	1068.740	1086.284	1091.652	1088.188	1081.124	1074.316	1062.596	1039.212	1032.384	1025.960	1021.428	1021.244	1024.588	1042.556	1055.156	1061.240	1068.020	1071.908	1077.104	1080.020	1081.632	1082.904	1082.012	1086.464	1090.004	1085.692	1085.332	1086.436	1089.844	1092.000	1095.124	1101.320	1103.456	1095.648	1099.376	1103.048	1102.476	1098.208	1095.120	1094.156	1087.468
1025.816	1025.788	1025.600	1026.068	1024.984	1025.260	1025.296	1025.108	1025.084	1025.600	1025.544	1025.184	1025.408	1025.220	1025.340	1025.112	1025.104	1024.396	1024.316	1024.956	1024.808	1024.852	1024.964	1024.796	1024.748	1024.976	1025.512	1026.104	1025.552	1025.552	1025.948	1026.352	1026.864	1027.008	1027.108	1026.848	1029.004	1030.900	1030.652	1029.508	1030.176	1035.112	1033.076	1031.424	1031.528	1030.288	1030.024	1031.872	1036.728	1034.980	1035.492	1039.964	1025.864	1020.764	1017.444	1016.868	1015.544	1013.068	1016.036	1012.260	1010.056	1007.820	1003.568	999.872	1000.248	1000.856	1004.372	1003.684	1005.412	1004.704	1014.808	1012.828	1013.384	1013.600	1015.208	1014.272	1008.500	1001.064	999.412	998.872	998.784	999.660	1000.456	1000.076	999.540	999.460	999.236	999.256	1000.140	999.852	1000.528	1000.136	999.832	999.664	999.468	999.788	1001.196	1001.172	1001.108	1000.872	1000.972	1000.500	1000.000	1000.396	1000.564	1017.744	1038.456	1032.944	1026.116	1024.468	1032.660	1032.136	1041.760	1043.904	1032.320	1022.216	1022.024	1023.624	1026.700	1029.124	1022.300	1014.452	1013.392	1011.208	1008.724	1009.128	1011.280	1012.916	1010.448	1009.916	1009.912	1009.928	1007.568	1005.988	1006.324	1005.568	1004.768	1005.248	1004.992	1005.636	1005.428	1011.872	1022.840	1025.732	1028.188	1028.620	1029.680	1030.860	1031.800	1032.716	1033.680	1035.056	1036.264	1037.704	1038.232	1039.032	1040.076	1040.968	1042.088	1042.908	1043.952	1045.460	1045.316	1045.120	1045.688	1045.828	1045.400	1041.916	1039.568	1047.800	1049.676	1051.192	1050.196	1049.944	1050.472	1053.104	1054.548	1055.912	1055.944	1056.136	1057.148	1057.676	1057.836	1058.456	1058.116	1056.508	1054.516	1049.972	1048.632	1051.804	1056.692	1058.148	1058.672	1059.916	1060.748	1060.368	1060.476	1059.552	1059.076	1059.260	1059.224	1058.484	1057.300	1055.624	1050.484	1045.316	1045.140	1047.980	1054.320	1057.136	1060.808	1061.764	1062.772	1063.808	1064.504	1065.632	1066.536	1067.308	1069.124	1069.320	1069.948	1070.680	1071.632	1072.144	1072.972	1073.240	1073.604	1073.044	1073.040	1072.572	1071.768	1070.468	1070.104	1070.244	1071.348	1074.132	1074.940	1076.560	1077.704	1078.600	1078.976	1079.580	1080.520	1080.504	1081.344	1085.760	1088.704	1072.564	1070.060	1070.732	1075.164	1080.220	1080.364	1079.412	1078.588	1078.148	1077.896	1078.400	1079.388	1079.128	1070.080	1087.448	1091.624	1088.612	1081.288	1076.624	1065.632	1038.392	1033.152	1028.440	1021.472	1020.568	1026.260	1044.604	1053.796	1057.764	1062.968	1067.508	1071.196	1074.644	1078.008	1078.716	1077.916	1083.784	1089.424	1087.008	1085.908	1085.760	1088.420	1092.280	1090.996	1095.116	1099.328	1094.048	1094.704	1101.276	1102.036	1097.828	1097.312	1099.236	1094.940
1026.012	1025.988	1025.500	1025.380	1024.732	1025.008	1024.996	1025.276	1025.460	1025.300	1025.440	1025.576	1025.636	1024.972	1025.324	1024.876	1024.384	1024.156	1024.592	1024.880	1024.516	1024.584	1024.788	1024.792	1024.276	1024.528	1024.792	1025.364	1025.512	1025.280	1025.528	1025.936	1026.780	1026.672	1027.316	1027.152	1028.808	1031.376	1030.656	1029.648	1031.100	1034.040	1035.772	1031.760	1030.872	1029.932	1030.312	1032.844	1034.492	1036.320	1032.332	1035.540	1029.128	1024.020	1019.964	1017.596	1016.776	1017.444	1017.340	1014.112	1014.568	1014.228	1006.328	999.804	999.292	1000.760	1002.400	1001.652	1002.060	1000.196	1012.856	1011.428	1010.892	1009.116	1013.072	1013.328	1015.588	1016.184	999.428	999.484	1001.812	999.908	999.808	999.636	999.424	999.272	999.424	999.376	999.832	999.908	999.904	1000.016	999.704	999.680	999.588	1000.572	1000.908	1000.184	1000.236	999.956	1000.264	1000.084	1000.692	1000.272	1001.064	1002.948	1031.712	1029.748	1023.512	1024.624	1029.776	1023.860	1032.020	1038.880	1029.556	1022.692	1022.080	1022.536	1028.364	1024.056	1016.940	1011.528	1008.340	1007.532	1008.472	1011.840	1011.824	1010.056	1007.236	1005.092	1004.916	1005.664	1005.472	1005.768	1006.544	1005.264	1004.708	1005.576	1005.316	1005.856	1006.984	1009.992	1021.276	1025.980	1028.280	1029.108	1030.408	1031.656	1032.452	1033.412	1034.312	1034.816	1037.344	1038.124	1038.644	1039.364	1040.192	1041.000	1041.452	1042.112	1043.564	1044.336	1044.144	1044.056	1042.748	1040.948	1038.752	1038.636	1042.664	1048.052	1050.052	1051.192	1051.644	1052.476	1053.032	1054.136	1054.632	1055.700	1055.988	1056.044	1056.448	1057.024	1056.828	1056.656	1056.600	1054.244	1051.892	1050.172	1049.616	1049.588	1051.808	1057.208	1058.448	1059.992	1060.224	1060.052	1060.092	1059.652	1059.304	1057.984	1057.252	1056.360	1050.756	1046.336	1043.028	1045.504	1051.148	1054.236	1057.148	1058.588	1061.132	1062.316	1063.404	1063.892	1064.500	1065.660	1066.504	1067.160	1068.656	1069.172	1069.668	1070.508	1071.008	1071.572	1072.600	1072.768	1072.936	1073.252	1072.272	1071.940	1071.136	1069.692	1069.380	1070.124	1071.116	1074.052	1075.280	1076.608	1076.624	1076.960	1078.076	1078.980	1080.304	1080.528	1081.416	1089.416	1086.744	1071.492	1069.868	1069.936	1072.932	1079.028	1079.668	1078.640	1078.196	1077.352	1077.468	1079.192	1079.164	1074.544	1070.792	1086.936	1093.080	1090.656	1083.764	1079.552	1066.472	1039.584	1032.988	1028.356	1020.936	1020.064	1022.084	1041.872	1048.912	1052.436	1059.464	1065.108	1069.580	1074.268	1077.664	1079.948	1079.432	1080.416	1085.972	1087.252	1088.796	1088.712	1088.256	1088.692	1088.472	1089.916	1093.816	1094.072	1092.512	1097.756	1098.300	1095.164	1096.092	1099.512	1097.036
1025.592	1025.440	1025.340	1025.468	1024.932	1025.220	1025.060	1024.756	1024.352	1024.576	1024.872	1024.856	1024.060	1024.548	1025.160	1025.032	1024.596	1024.900	1024.552	1024.600	1024.572	1024.436	1024.440	1024.480	1024.328	1024.156	1024.436	1024.916	1025.164	1025.408	1025.804	1026.152	1026.340	1027.076	1028.048	1028.500	1029.552	1030.964	1031.344	1030.168	1029.772	1033.216	1036.032	1032.300	1030.704	1028.980	1028.876	1030.040	1031.792	1032.400	1031.200	1031.216	1030.988	1022.876	1023.404	1020.984	1019.672	1019.464	1019.308	1019.072	1017.264	1016.392	1010.444	1007.208	1002.756	1000.028	1000.660	1000.304	1000.788	1000.928	1000.604	1003.888	1003.144	1002.712	1008.836	1011.596	1013.876	1014.620	1009.424	1005.100	1011.492	1002.448	998.476	999.368	999.368	999.560	999.320	999.144	999.444	999.604	999.732	999.448	999.384	999.584	998.212	999.084	1000.808	1000.024	999.680	999.660	999.744	999.724	999.920	999.852	1002.304	1003.104	1029.156	1036.064	1031.592	1025.532	1021.236	1026.580	1029.628	1038.088	1037.276	1026.968	1020.564	1020.932	1020.804	1011.572	1007.000	1004.400	1003.556	1006.520	1010.224	1011.532	1010.668	1006.072	1003.508	1004.528	1005.316	1005.292	1004.856	1005.048	1004.916	1004.436	1005.260	1005.104	1005.424	1008.220	1018.672	1022.112	1024.516	1025.756	1028.312	1029.932	1031.156	1032.588	1033.104	1033.772	1034.644	1035.460	1037.840	1038.396	1038.744	1039.368	1040.312	1041.212	1042.164	1042.276	1042.384	1042.892	1041.956	1037.900	1035.560	1038.180	1042.124	1044.760	1046.508	1048.636	1050.096	1051.084	1051.928	1052.560	1053.364	1053.972	1054.272	1055.336	1055.276	1055.380	1056.268	1055.912	1055.652	1055.508	1055.076	1051.308	1050.416	1051.360	1052.200	1053.696	1056.300	1057.492	1058.312	1059.368	1059.424	1059.600	1060.340	1059.624	1058.008	1056.628	1050.212	1043.092	1042.156	1042.800	1043.828	1047.212	1053.956	1055.588	1057.224	1059.056	1061.232	1062.212	1063.232	1064.052	1064.580	1065.360	1066.000	1066.688	1067.880	1068.236	1069.020	1069.800	1070.512	1071.164	1071.808	1072.588	1072.708	1072.908	1072.048	1070.576	1069.516	1069.420	1069.820	1070.012	1071.088	1073.264	1074.532	1076.044	1076.656	1078.324	1077.916	1078.088	1079.856	1080.448	1081.712	1092.068	1092.324	1073.776	1070.236	1070.764	1075.576	1076.528	1076.816	1075.452	1075.856	1075.164	1076.576	1077.840	1078.360	1064.188	1069.564	1085.564	1092.532	1090.364	1084.648	1078.304	1066.900	1041.088	1031.336	1027.192	1020.100	1020.004	1021.000	1037.600	1045.776	1050.760	1060.248	1064.484	1068.712	1075.072	1077.392	1078.416	1077.048	1077.612	1082.080	1087.192	1092.316	1093.176	1091.148	1090.180	1091.996	1091.072	1090.844	1090.620	1088.660	1091.660	1093.856	1092.056	1093.548	1097.656	1095.232
1025.396	1024.896	1024.592	1024.720	1024.980	1024.424	1024.528	1024.336	1024.044	1024.096	1024.308	1024.608	1023.900	1024.272	1024.680	1025.208	1024.344	1024.236	1024.224	1023.984	1024.572	1024.132	1024.260	1024.260	1024.072	1023.964	1024.416	1024.688	1024.632	1025.232	1025.160	1025.096	1025.188	1027.076	1028.384	1028.916	1029.488	1030.864	1030.864	1031.292	1031.256	1031.956	1032.552	1030.116	1030.020	1029.240	1029.288	1029.816	1030.424	1030.708	1029.048	1030.448	1032.988	1025.756	1024.664	1024.244	1021.800	1021.164	1020.596	1020.528	1018.968	1018.340	1014.792	1012.596	1008.148	1003.108	1003.404	1001.336	1001.040	1001.524	1001.592	1000.448	1000.740	1001.616	1001.776	1000.768	1002.860	1002.112	1003.316	1003.308	1006.648	1006.140	999.292	999.236	998.772	999.472	999.184	999.064	999.236	999.148	998.884	998.944	999.460	999.640	998.116	998.460	1000.708	999.956	999.864	999.696	999.584	999.608	999.728	999.932	1004.888	1017.916	1026.508	1031.852	1033.476	1030.320	1023.164	1019.372	1020.136	1021.412	1022.672	1019.176	1015.124	1013.236	1007.208	1003.416	1002.764	1004.128	1008.540	1010.540	1010.788	1011.216	1008.828	1004.220	1004.744	1004.732	1004.968	1004.980	1004.000	1004.044	1004.128	1004.752	1004.964	1005.288	1005.600	1011.700	1021.064	1024.324	1025.564	1026.832	1028.860	1030.432	1031.344	1032.440	1033.164	1034.004	1035.188	1035.828	1037.408	1038.256	1039.000	1039.932	1041.432	1043.152	1043.836	1043.064	1037.236	1034.496	1032.852	1035.368	1040.276	1043.108	1044.892	1045.684	1047.496	1048.596	1049.764	1051.248	1051.672	1052.900	1053.244	1053.696	1054.092	1054.432	1054.524	1054.844	1055.936	1055.032	1054.324	1053.948	1052.048	1054.372	1055.140	1055.236	1055.432	1056.176	1055.720	1057.124	1058.304	1058.808	1058.736	1057.712	1060.704	1062.964	1056.952	1048.516	1041.148	1046.556	1049.660	1051.416	1053.580	1055.804	1056.624	1057.236	1058.580	1059.632	1061.636	1062.684	1063.296	1063.516	1064.312	1064.940	1065.108	1065.840	1067.056	1067.112	1068.252	1068.980	1070.176	1070.936	1070.848	1071.072	1070.728	1071.580	1071.000	1069.180	1068.732	1068.616	1068.472	1068.524	1069.556	1071.760	1073.736	1075.504	1076.424	1077.604	1078.320	1078.292	1079.208	1081.348	1083.540	1089.324	1089.484	1076.924	1071.620	1071.672	1075.268	1079.392	1082.092	1080.896	1077.540	1076.060	1073.916	1077.320	1077.072	1058.812	1068.684	1084.652	1091.700	1089.964	1083.508	1077.440	1066.416	1040.416	1030.496	1026.976	1020.892	1019.608	1024.052	1039.688	1047.300	1052.448	1060.364	1061.244	1063.340	1066.568	1068.064	1071.332	1074.820	1076.732	1079.704	1084.524	1090.624	1094.064	1095.156	1093.652	1094.544	1094.436	1089.900	1089.364	1088.304	1088.788	1090.476	1089.372	1093.064	1096.556	1093.604
1025.592	1025.188	1025.140	1025.268	1024.928	1024.448	1024.640	1024.636	1024.076	1024.136	1024.228	1024.852	1024.548	1024.248	1024.116	1024.636	1024.596	1024.076	1023.608	1023.772	1024.660	1024.156	1024.160	1024.248	1024.380	1024.032	1024.120	1023.980	1024.088	1024.888	1025.332	1025.608	1026.204	1027.184	1028.364	1029.108	1029.356	1030.152	1030.272	1030.368	1030.676	1030.612	1030.240	1028.252	1028.240	1029.176	1029.964	1030.216	1029.880	1030.640	1028.984	1029.472	1031.148	1025.928	1025.620	1024.732	1023.332	1022.448	1021.812	1020.604	1019.552	1018.876	1018.420	1014.512	1011.524	1007.376	1001.868	1000.648	1000.424	1000.844	1001.752	1001.072	1000.460	999.976	999.576	999.888	1001.096	1002.196	1000.592	1000.224	1001.176	1000.972	999.648	999.424	999.336	999.188	999.012	999.164	999.316	999.312	998.656	998.760	999.724	999.008	998.056	999.384	1000.072	999.532	999.648	999.684	999.548	999.780	999.652	1000.600	1000.248	1004.304	1015.536	1025.396	1029.076	1033.396	1023.852	1011.016	1008.656	1007.828	1007.484	1008.672	1011.548	1009.304	1003.844	1005.020	1007.732	1009.308	1008.892	1009.520	1008.748	1004.096	1003.052	1004.848	1005.020	1004.392	1003.664	1003.832	1003.916	1003.884	1004.660	1007.364	1005.436	1007.380	1014.292	1019.872	1022.540	1024.064	1025.080	1026.536	1028.972	1030.216	1030.608	1031.768	1032.968	1034.000	1034.716	1034.840	1036.772	1039.576	1040.060	1038.948	1036.700	1033.132	1031.344	1029.708	1031.760	1034.568	1037.836	1041.080	1042.988	1043.932	1044.660	1044.840	1045.564	1046.600	1049.420	1050.700	1051.648	1052.496	1053.352	1053.776	1054.224	1054.184	1054.200	1054.348	1054.496	1053.032	1052.676	1052.656	1051.540	1054.432	1054.780	1055.216	1055.304	1056.172	1056.604	1057.320	1057.332	1056.444	1055.596	1056.516	1056.044	1059.372	1052.592	1040.972	1043.536	1051.996	1054.104	1055.228	1056.596	1057.084	1057.388	1058.028	1059.300	1060.104	1061.708	1062.472	1063.052	1063.468	1063.892	1064.464	1064.364	1064.920	1065.732	1066.268	1067.600	1068.376	1069.204	1070.116	1069.064	1069.208	1070.324	1070.316	1070.092	1067.264	1067.472	1066.924	1066.748	1066.460	1068.248	1069.672	1071.888	1074.448	1076.348	1077.640	1078.400	1079.044	1079.704	1087.384	1087.312	1083.080	1089.516	1084.912	1073.704	1076.020	1078.788	1079.480	1083.756	1082.396	1078.484	1076.520	1073.288	1074.040	1073.444	1057.612	1071.000	1085.396	1092.364	1089.228	1082.836	1076.696	1062.472	1026.956	1027.632	1026.740	1021.232	1019.216	1023.384	1038.364	1042.824	1046.316	1053.592	1051.432	1052.136	1058.696	1065.732	1075.384	1080.344	1080.092	1079.156	1081.972	1089.088	1096.244	1099.880	1098.948	1096.208	1093.168	1089.196	1088.912	1087.976	1088.336	1088.796	1087.296	1094.080	1098.848	1087.576
1025.264	1025.304	1025.276	1025.168	1024.436	1024.284	1024.884	1024.796	1024.136	1024.004	1023.956	1024.204	1024.060	1024.540	1024.708	1023.940	1024.184	1024.048	1023.996	1023.592	1023.764	1023.548	1024.068	1024.440	1024.360	1023.792	1024.076	1023.912	1023.768	1024.000	1024.408	1025.360	1025.416	1025.984	1026.832	1026.868	1026.496	1025.872	1026.528	1027.648	1025.872	1022.092	1029.324	1028.624	1027.560	1028.472	1029.464	1029.296	1029.696	1031.936	1031.512	1029.532	1033.976	1024.072	1023.860	1024.644	1023.964	1023.180	1021.932	1020.752	1020.148	1021.156	1020.408	1016.076	1014.004	1011.384	1009.468	1007.100	1003.320	1000.660	1000.936	1000.632	1000.972	1000.484	999.640	999.448	999.744	999.740	1001.044	1000.124	1001.720	999.768	999.584	1000.068	1000.624	1000.720	999.300	999.004	999.240	999.072	998.412	997.628	997.592	997.164	998.632	1001.124	1000.540	999.696	999.656	999.824	1000.428	1000.648	999.824	999.876	999.672	999.828	1001.896	1015.088	1017.228	1023.312	1019.476	1004.520	1003.664	1004.600	1004.228	1004.324	1005.660	1005.520	1004.240	1006.560	1007.308	1005.872	1007.896	1006.692	1004.108	1002.460	1002.632	1002.880	1002.908	1003.288	1003.144	1003.488	1003.952	1004.352	1007.596	1009.368	1011.848	1014.712	1017.720	1020.132	1022.024	1023.096	1024.000	1027.160	1028.872	1029.584	1029.876	1031.040	1032.940	1034.984	1035.844	1034.320	1039.632	1039.304	1033.684	1025.516	1023.628	1026.468	1030.276	1032.552	1039.764	1040.360	1041.128	1042.768	1043.288	1043.804	1044.228	1043.924	1043.688	1046.128	1048.904	1050.452	1051.468	1052.488	1053.016	1053.776	1053.832	1053.812	1053.668	1053.636	1052.632	1052.088	1052.660	1051.352	1051.096	1053.808	1054.048	1054.288	1055.052	1055.300	1056.232	1056.188	1056.444	1055.204	1054.716	1053.664	1053.264	1051.700	1041.832	1039.508	1043.392	1053.724	1055.104	1055.888	1056.572	1056.716	1057.240	1057.824	1058.924	1060.920	1061.480	1062.116	1062.896	1063.184	1063.264	1063.764	1063.560	1064.168	1064.496	1064.980	1066.156	1067.596	1066.768	1066.208	1066.896	1068.096	1068.880	1068.756	1067.772	1065.772	1065.624	1065.228	1065.124	1065.412	1067.056	1070.620	1073.380	1075.432	1076.780	1077.728	1078.680	1079.600	1084.248	1085.160	1081.996	1084.412	1090.456	1088.900	1080.804	1079.964	1079.788	1079.564	1081.952	1081.776	1079.248	1076.592	1076.008	1071.268	1066.564	1058.484	1072.056	1087.480	1094.520	1090.272	1082.340	1075.392	1053.024	1026.708	1024.768	1024.732	1020.604	1019.688	1024.976	1037.328	1037.888	1041.372	1045.844	1050.392	1057.748	1067.492	1073.144	1077.808	1082.572	1083.304	1080.400	1081.408	1085.852	1094.184	1102.712	1102.656	1098.252	1093.372	1088.960	1087.916	1088.164	1092.320	1093.932	1089.120	1095.408	1100.760	1092.524
1025.508	1025.404	1025.116	1024.528	1023.972	1024.172	1024.540	1024.580	1024.348	1024.180	1023.976	1023.804	1023.744	1024.120	1024.468	1024.244	1024.196	1023.568	1023.208	1023.328	1023.612	1023.644	1023.720	1023.468	1023.484	1023.456	1023.528	1023.444	1022.848	1022.972	1023.044	1023.572	1023.888	1023.996	1025.008	1025.200	1026.048	1025.984	1026.292	1026.208	1024.720	1024.576	1027.728	1029.904	1030.076	1028.296	1027.804	1028.096	1028.420	1028.720	1029.200	1028.760	1033.396	1022.436	1023.860	1023.724	1023.676	1022.376	1021.764	1020.552	1020.248	1020.228	1018.784	1016.968	1015.280	1013.416	1012.240	1014.384	1016.692	1002.820	1001.272	1000.708	1000.552	1000.708	1000.236	999.436	999.564	999.480	999.596	999.664	999.548	999.480	999.420	1000.224	999.992	999.464	999.336	998.640	998.884	997.596	996.900	997.900	999.716	1000.336	1001.132	1000.652	1000.652	1000.424	999.716	1001.560	1001.924	1001.420	999.696	999.612	999.464	999.584	1000.404	1011.564	1012.180	1012.916	1004.716	1003.992	1004.128	1005.172	1005.660	1005.144	1004.352	1004.212	1006.292	1005.460	1003.896	1002.972	1003.236	1002.796	1002.700	1002.440	1002.468	1003.260	1003.116	1003.176	1002.656	1003.328	1012.372	1016.452	1018.976	1023.412	1018.800	1009.268	1008.052	1017.616	1020.716	1021.772	1023.744	1027.512	1028.408	1029.140	1028.208	1028.992	1032.332	1033.524	1033.268	1032.040	1034.640	1032.800	1024.268	1025.176	1030.256	1034.188	1036.956	1038.236	1041.392	1042.232	1042.800	1042.848	1043.648	1043.448	1044.180	1043.716	1043.784	1045.128	1048.800	1050.536	1051.720	1052.720	1052.936	1053.020	1052.588	1052.716	1052.496	1052.612	1051.120	1051.076	1050.932	1050.748	1051.024	1052.768	1053.024	1052.680	1052.096	1052.884	1054.212	1055.132	1055.780	1054.628	1053.804	1052.300	1054.276	1046.952	1040.776	1045.120	1048.468	1054.896	1055.320	1056.164	1056.780	1057.200	1057.328	1057.960	1058.664	1060.804	1061.116	1061.448	1062.304	1062.128	1062.560	1062.572	1062.912	1063.456	1064.164	1064.704	1065.060	1064.884	1064.256	1063.908	1064.160	1066.596	1066.820	1067.412	1066.380	1064.416	1064.000	1064.144	1064.632	1064.992	1070.700	1073.800	1075.628	1076.736	1077.176	1078.660	1078.976	1079.520	1080.676	1081.144	1081.256	1080.668	1082.596	1083.836	1080.140	1079.864	1079.604	1078.816	1081.304	1081.392	1079.172	1076.696	1076.176	1074.796	1070.160	1059.204	1070.152	1088.276	1096.288	1092.540	1083.996	1075.512	1058.152	1027.884	1025.904	1024.760	1020.760	1018.576	1024.484	1033.432	1038.216	1050.368	1054.540	1058.980	1065.988	1072.480	1075.892	1077.416	1081.076	1083.956	1080.420	1081.164	1084.076	1089.896	1099.120	1100.876	1096.916	1092.028	1091.784	1088.588	1086.068	1089.056	1094.924	1094.232	1097.508	1101.992	1098.856
1025.176	1025.024	1024.556	1024.588	1024.080	1024.324	1024.368	1024.300	1024.196	1024.088	1023.820	1023.876	1024.364	1024.408	1024.332	1024.468	1024.352	1024.340	1023.784	1023.884	1023.840	1023.888	1023.432	1023.376	1023.352	1023.300	1023.576	1023.056	1022.992	1023.420	1023.216	1023.604	1024.368	1025.012	1025.428	1025.428	1025.928	1025.460	1025.748	1025.060	1025.656	1027.484	1028.272	1029.216	1029.980	1028.196	1027.756	1027.904	1028.604	1029.004	1029.520	1030.120	1029.144	1027.676	1025.060	1022.508	1021.944	1021.524	1018.524	1018.232	1019.716	1018.548	1018.272	1017.148	1015.832	1012.828	1012.016	1011.196	1012.588	1010.908	1005.132	1004.212	1003.248	1000.132	999.736	999.484	999.732	999.652	999.676	999.564	999.716	999.676	999.692	999.652	999.320	999.000	999.228	998.724	999.252	997.012	999.412	1000.592	1000.592	1001.060	1000.876	1000.520	1001.200	1000.184	999.840	999.968	1001.064	1001.232	1000.036	999.980	1000.432	999.648	1009.048	1013.892	1007.804	1004.652	1003.412	1004.544	1004.988	1006.224	1006.836	1005.976	1006.876	1006.796	1006.640	1003.264	1003.300	1003.536	1003.332	1002.608	1002.488	1002.652	1002.796	1004.608	1003.612	1003.232	1003.652	1020.608	1028.328	1027.460	1027.488	1026.388	1025.260	1020.128	1012.628	1011.912	1011.684	1009.624	1009.608	1011.968	1011.936	1020.760	1022.060	1022.496	1023.948	1023.868	1023.708	1023.196	1021.052	1021.272	1025.860	1030.816	1033.524	1036.276	1038.080	1039.860	1041.920	1042.404	1043.020	1042.708	1041.532	1039.324	1039.988	1039.644	1039.740	1043.668	1049.008	1050.344	1051.160	1051.420	1051.424	1050.900	1051.848	1051.444	1051.436	1050.892	1050.012	1049.360	1049.648	1050.824	1051.332	1051.512	1051.988	1052.772	1053.076	1053.316	1053.804	1053.872	1054.548	1054.004	1053.164	1054.124	1048.616	1040.028	1045.556	1050.340	1049.480	1054.796	1055.292	1055.876	1056.432	1056.776	1056.936	1057.624	1059.056	1059.248	1059.628	1060.784	1061.064	1061.084	1061.136	1061.168	1061.484	1063.108	1062.188	1061.400	1060.996	1059.916	1060.660	1061.896	1063.964	1065.700	1066.440	1066.388	1064.132	1062.812	1062.596	1063.516	1064.708	1066.852	1071.532	1075.136	1075.816	1076.816	1077.928	1078.800	1079.184	1079.264	1079.796	1080.208	1080.292	1080.292	1079.572	1079.760	1079.716	1080.060	1079.208	1078.584	1080.364	1082.588	1080.964	1077.960	1078.404	1077.384	1074.096	1049.340	1062.416	1086.952	1096.292	1091.876	1083.996	1075.400	1062.700	1028.080	1027.584	1024.260	1019.700	1017.716	1022.936	1037.988	1041.568	1058.664	1061.736	1063.672	1066.612	1071.856	1076.228	1073.864	1075.832	1081.996	1079.784	1080.224	1088.288	1094.216	1094.488	1094.044	1093.060	1090.176	1091.612	1090.688	1085.736	1086.748	1095.436	1096.796	1095.556	1097.264	1099.292
1024.320	1024.168	1023.832	1024.284	1024.436	1023.992	1024.048	1023.732	1023.660	1023.876	1023.708	1023.616	1024.556	1024.524	1024.296	1024.220	1024.152	1023.980	1023.760	1023.608	1024.040	1024.048	1023.504	1023.604	1023.564	1023.696	1023.572	1022.912	1023.208	1023.256	1023.640	1024.164	1024.332	1024.308	1024.632	1025.052	1025.020	1024.992	1024.960	1025.168	1025.888	1027.308	1027.740	1028.272	1029.172	1028.496	1027.724	1028.508	1028.664	1029.212	1029.464	1032.060	1029.796	1030.020	1028.916	1024.524	1022.964	1021.620	1020.464	1020.604	1019.848	1016.732	1015.828	1015.368	1013.668	1012.320	1011.576	1011.172	1010.484	1008.588	1005.804	1006.748	1007.560	1005.536	1002.528	1001.468	1001.612	1005.996	1002.936	999.836	999.568	999.704	999.600	999.864	1000.044	999.016	999.260	999.552	1000.912	997.744	1000.476	1000.860	999.604	999.920	1000.704	1000.232	1000.712	999.916	999.536	1001.520	1001.688	1000.940	1000.532	1000.652	1000.304	1000.504	1001.964	1003.596	1003.112	1005.248	1004.544	1005.352	1005.376	1005.908	1007.320	1006.804	1006.640	1004.040	1003.156	1003.088	1003.108	1003.296	1002.936	1002.372	1003.200	1003.332	1003.552	1003.540	1002.912	1002.916	1014.232	1027.612	1030.168	1030.864	1030.168	1028.884	1027.504	1027.372	1027.144	1026.372	1024.380	1021.272	1018.632	1018.596	1020.464	1024.408	1028.180	1029.344	1033.524	1037.272	1021.540	1025.696	1031.952	1035.388	1035.556	1036.704	1038.692	1038.952	1039.968	1041.020	1042.128	1042.288	1042.044	1041.552	1040.708	1038.576	1037.216	1037.196	1044.704	1047.328	1048.676	1050.516	1050.988	1051.052	1050.448	1049.968	1051.068	1050.664	1050.492	1049.992	1049.204	1048.756	1049.352	1050.176	1051.432	1052.236	1052.840	1053.232	1053.576	1054.200	1054.088	1054.260	1054.600	1054.244	1055.004	1053.732	1037.876	1037.364	1045.892	1049.916	1050.332	1051.988	1054.036	1055.148	1055.388	1055.736	1056.680	1057.256	1057.860	1058.280	1058.696	1058.552	1057.904	1056.728	1056.516	1055.044	1055.824	1060.836	1058.360	1057.000	1058.956	1060.924	1062.708	1063.268	1065.176	1065.840	1065.416	1064.128	1061.584	1061.500	1063.592	1065.244	1067.284	1070.224	1073.188	1074.364	1076.112	1077.012	1078.172	1079.008	1079.124	1079.072	1079.696	1079.792	1079.608	1080.020	1080.288	1080.468	1079.904	1079.704	1078.960	1078.568	1078.584	1080.748	1082.292	1079.580	1077.724	1079.032	1077.776	1048.816	1064.612	1085.584	1095.472	1092.240	1083.132	1073.224	1062.780	1027.820	1025.948	1022.600	1018.048	1017.656	1024.660	1038.768	1042.572	1057.708	1061.692	1062.756	1064.880	1067.636	1072.732	1078.540	1079.540	1077.928	1078.456	1082.332	1089.272	1098.528	1099.536	1095.212	1091.140	1087.900	1087.352	1087.380	1083.572	1090.196	1096.772	1095.160	1093.096	1092.436	1098.928
1024.168	1023.864	1023.956	1023.848	1023.952	1023.720	1023.364	1023.368	1023.420	1023.620	1023.684	1023.116	1024.052	1024.372	1024.296	1024.408	1024.160	1023.720	1023.472	1023.436	1024.004	1024.000	1023.888	1023.624	1023.520	1023.396	1023.168	1022.792	1022.480	1023.032	1023.320	1023.628	1023.988	1023.712	1023.732	1024.416	1023.436	1024.124	1024.560	1025.396	1025.480	1026.460	1026.608	1026.492	1026.576	1027.836	1027.408	1027.920	1028.452	1028.696	1028.576	1030.496	1029.996	1030.040	1029.500	1025.936	1024.584	1023.880	1023.156	1022.172	1021.592	1016.960	1016.656	1015.748	1014.516	1012.484	1011.700	1011.012	1009.668	1009.892	1010.272	1010.964	1011.244	1010.016	1010.412	1008.064	1009.232	1012.120	1010.924	1008.428	1005.504	1001.068	999.532	999.488	999.372	999.780	998.800	999.496	998.748	997.416	1001.568	1000.360	999.848	999.528	1000.612	999.728	999.756	1000.720	999.632	1001.828	1001.080	1000.400	1000.524	1000.700	1000.412	1000.472	1000.736	1002.156	1003.712	1005.544	1005.808	1006.464	1006.400	1004.028	1003.828	1001.996	1001.564	1002.000	1002.932	1002.756	1002.724	1002.604	1001.972	1002.384	1002.996	1003.284	1003.472	1002.672	1005.344	1014.108	1025.880	1027.768	1029.600	1030.720	1031.368	1030.896	1030.652	1029.952	1030.132	1030.300	1030.236	1028.992	1028.400	1033.248	1036.944	1035.924	1034.676	1034.352	1036.572	1037.032	1038.132	1039.804	1042.696	1040.840	1039.300	1039.236	1041.584	1042.480	1040.652	1040.816	1042.416	1041.600	1040.536	1040.376	1039.428	1037.628	1038.724	1041.436	1045.360	1047.264	1049.484	1050.504	1051.180	1051.108	1050.352	1050.408	1050.220	1049.788	1049.040	1048.644	1048.548	1048.988	1049.656	1049.460	1050.928	1052.564	1053.552	1053.752	1054.216	1054.160	1054.232	1054.568	1054.780	1054.464	1054.392	1052.384	1036.700	1035.588	1039.324	1042.772	1048.680	1050.468	1051.768	1052.380	1053.600	1054.384	1055.624	1056.088	1055.980	1056.884	1057.024	1055.952	1054.968	1052.284	1053.160	1054.312	1057.420	1059.260	1060.296	1061.512	1062.392	1063.708	1063.636	1064.952	1066.396	1064.720	1063.532	1062.956	1059.380	1063.180	1065.236	1067.572	1069.168	1070.488	1073.660	1074.336	1075.716	1076.528	1077.060	1078.584	1079.120	1079.028	1078.404	1078.580	1078.812	1079.368	1080.484	1080.404	1079.888	1078.812	1078.120	1078.400	1077.860	1079.260	1083.024	1081.696	1076.816	1078.648	1055.472	1054.244	1065.748	1084.552	1095.660	1092.424	1083.956	1075.016	1064.436	1027.776	1026.852	1021.624	1018.540	1017.700	1022.376	1038.756	1045.080	1055.852	1060.724	1063.564	1067.352	1068.692	1071.848	1076.596	1077.464	1073.892	1075.664	1079.060	1086.336	1096.084	1100.700	1097.408	1091.796	1084.924	1082.984	1081.892	1086.412	1093.888	1094.924	1090.216	1091.056	1097.068	1094.092
1023.824	1023.656	1023.388	1023.464	1023.548	1023.192	1023.316	1022.888	1023.704	1024.064	1023.508	1023.160	1023.636	1024.336	1024.176	1023.824	1023.620	1023.416	1023.452	1023.280	1023.612	1023.496	1023.016	1022.984	1023.184	1023.132	1022.792	1022.500	1022.240	1022.380	1022.644	1022.960	1022.868	1022.672	1022.108	1021.936	1023.144	1023.148	1023.172	1024.112	1024.700	1025.168	1025.384	1025.200	1025.552	1026.040	1025.928	1026.408	1027.052	1027.884	1027.988	1028.332	1028.596	1028.812	1029.328	1027.888	1027.060	1025.860	1025.736	1025.356	1020.624	1017.780	1017.540	1016.372	1015.216	1013.544	1012.408	1011.164	1011.416	1011.484	1011.248	1011.272	1012.400	1012.768	1012.632	1013.388	1013.908	1013.700	1016.308	1018.496	1015.720	1013.232	1000.692	999.576	999.016	998.860	998.876	998.812	997.652	998.496	1001.252	1000.244	1000.284	1001.236	1000.296	1000.308	999.660	1000.656	1000.028	998.988	999.496	999.908	1001.044	1000.672	1000.612	1000.668	1001.144	1001.516	1003.528	1001.672	1002.840	1004.616	1001.768	1000.948	1001.644	1002.108	1002.152	1001.792	1003.276	1002.564	1002.224	1002.252	1001.924	1002.228	1002.428	1002.932	1003.404	1012.480	1019.448	1026.420	1027.904	1028.904	1030.772	1031.852	1031.884	1031.280	1031.124	1031.392	1032.124	1032.664	1032.820	1032.092	1031.728	1036.868	1041.584	1038.520	1036.736	1035.936	1037.176	1037.544	1038.528	1040.060	1039.720	1038.556	1038.636	1038.840	1039.812	1039.916	1040.060	1040.760	1040.836	1040.548	1041.612	1040.800	1040.996	1042.780	1044.112	1045.336	1047.036	1048.884	1050.536	1051.188	1051.064	1050.488	1050.208	1050.272	1049.076	1047.712	1045.776	1046.732	1049.036	1049.308	1050.180	1050.364	1051.848	1052.644	1053.364	1053.728	1054.316	1054.660	1054.516	1054.512	1054.268	1054.160	1054.036	1056.340	1042.940	1034.592	1034.080	1034.368	1040.848	1048.452	1048.808	1049.564	1051.032	1052.764	1053.736	1054.504	1054.684	1055.932	1055.208	1053.844	1051.452	1054.972	1057.784	1057.652	1059.144	1059.884	1060.480	1061.596	1062.552	1062.860	1063.028	1065.396	1062.996	1054.124	1060.352	1062.916	1061.336	1064.492	1065.176	1068.584	1069.584	1071.156	1073.876	1074.736	1075.532	1076.040	1077.212	1077.696	1078.668	1078.596	1076.776	1076.352	1076.644	1078.224	1079.152	1080.136	1080.288	1079.284	1077.868	1077.876	1077.880	1078.684	1081.316	1081.776	1076.896	1076.900	1055.252	1053.980	1065.548	1085.672	1096.744	1094.476	1086.700	1077.300	1062.640	1028.780	1026.916	1021.656	1018.608	1017.668	1018.608	1036.340	1044.444	1056.260	1060.092	1062.600	1066.036	1068.944	1072.400	1074.564	1074.468	1073.168	1075.700	1080.120	1083.312	1093.324	1099.716	1099.796	1095.708	1083.804	1082.292	1083.800	1094.372	1099.728	1095.048	1089.172	1094.608	1101.000	1078.928
1023.612	1023.296	1022.776	1022.988	1023.084	1022.708	1022.804	1023.112	1023.152	1023.436	1022.420	1022.676	1023.148	1023.324	1023.564	1023.556	1023.032	1023.548	1023.616	1023.452	1023.512	1023.424	1023.108	1023.036	1022.868	1023.396	1022.800	1022.476	1022.240	1022.580	1022.744	1022.148	1021.624	1021.696	1021.832	1021.876	1021.528	1021.880	1021.804	1021.748	1021.696	1022.784	1024.164	1023.648	1023.040	1023.416	1024.764	1025.152	1025.016	1026.176	1026.816	1026.668	1026.932	1027.480	1027.324	1026.900	1026.400	1026.116	1024.940	1023.468	1020.176	1017.828	1017.832	1017.480	1015.816	1014.384	1013.808	1012.604	1012.536	1012.320	1011.884	1012.188	1013.160	1013.016	1013.300	1014.056	1014.764	1015.436	1017.040	1019.832	1018.048	1017.212	1017.400	1017.608	1019.320	1010.288	997.640	996.736	1000.616	1000.092	1000.608	999.696	999.860	1000.764	1000.520	1001.508	1000.868	999.808	999.848	999.348	999.616	999.240	999.664	999.688	1000.180	999.648	1000.040	1000.000	1000.196	1000.872	1000.088	1000.760	1000.516	1000.752	1001.300	1001.992	1001.876	1001.752	1001.464	1001.804	1001.748	1001.964	1002.048	1002.364	1002.596	1002.984	1012.004	1020.288	1022.496	1025.448	1027.092	1028.312	1030.176	1032.248	1032.120	1031.404	1031.832	1032.232	1032.752	1032.980	1033.876	1034.224	1034.436	1037.344	1038.528	1038.044	1037.800	1036.260	1037.312	1037.232	1037.436	1037.476	1037.384	1038.216	1038.120	1038.028	1038.852	1039.720	1039.896	1040.224	1039.572	1041.004	1041.988	1042.992	1043.816	1044.872	1046.392	1046.340	1048.964	1049.396	1050.236	1050.788	1050.596	1050.384	1049.740	1049.632	1044.116	1043.264	1046.648	1048.272	1049.540	1049.892	1050.232	1051.176	1052.536	1053.304	1053.928	1054.036	1054.332	1054.724	1054.456	1054.796	1054.412	1054.116	1053.332	1053.904	1052.980	1046.436	1043.356	1040.844	1034.252	1037.856	1042.692	1047.336	1049.360	1050.964	1051.684	1052.224	1052.664	1053.628	1053.520	1054.832	1051.060	1056.460	1057.344	1058.408	1058.472	1060.132	1061.484	1061.940	1062.352	1062.400	1061.700	1061.612	1054.216	1058.828	1061.476	1063.816	1064.136	1065.920	1066.940	1067.768	1069.364	1072.652	1073.460	1074.328	1075.388	1075.844	1076.940	1077.940	1078.372	1078.660	1076.664	1076.452	1076.252	1076.920	1077.828	1078.588	1079.080	1078.848	1077.680	1077.620	1077.352	1077.512	1080.204	1081.708	1077.996	1079.080	1056.308	1053.600	1065.512	1085.684	1097.464	1095.616	1089.088	1080.584	1034.032	1030.176	1027.516	1022.188	1018.160	1017.524	1022.592	1038.548	1045.108	1060.088	1064.156	1064.920	1067.748	1069.432	1072.616	1076.400	1077.208	1073.660	1074.500	1080.112	1081.592	1089.156	1096.276	1097.284	1093.796	1087.872	1088.664	1085.908	1087.964	1093.552	1095.208	1096.624	1084.524	1050.920	1058.128
1022.004	1021.272	1021.844	1021.392	1022.440	1022.416	1022.424	1022.964	1022.780	1023.160	1022.416	1022.228	1022.552	1023.076	1023.392	1023.264	1022.992	1023.344	1023.172	1023.212	1023.088	1023.328	1023.084	1022.780	1022.692	1022.976	1022.876	1022.448	1022.260	1022.800	1022.884	1022.468	1022.480	1022.552	1022.424	1022.532	1022.164	1022.244	1022.396	1022.716	1021.924	1022.224	1022.788	1023.076	1023.544	1024.600	1024.652	1024.768	1025.040	1025.340	1025.164	1025.040	1025.328	1025.684	1026.064	1025.688	1025.012	1024.680	1023.840	1022.588	1019.584	1017.036	1016.576	1015.676	1016.220	1015.612	1014.456	1013.624	1012.876	1013.076	1013.084	1013.120	1013.768	1013.232	1013.712	1014.304	1015.320	1015.688	1016.724	1016.884	1017.300	1019.248	1018.792	1019.608	1023.304	1011.588	998.300	998.340	1001.588	999.912	999.908	999.464	999.336	1000.588	1000.284	1000.452	1001.192	1000.612	1000.020	999.576	999.184	1000.040	999.136	999.052	999.228	999.448	999.576	999.688	999.724	1003.124	1001.664	1000.180	1000.764	1001.012	1000.900	1001.228	1001.476	1001.648	1001.944	1002.324	1002.220	1003.548	1003.512	1002.912	1002.660	1004.956	1018.360	1020.964	1023.648	1026.024	1027.052	1028.412	1029.228	1031.260	1030.900	1031.432	1031.956	1032.076	1032.456	1033.144	1034.244	1034.552	1034.660	1036.748	1036.820	1037.860	1036.996	1034.748	1036.920	1037.072	1037.772	1036.664	1036.724	1037.096	1037.468	1038.524	1038.800	1039.568	1039.276	1040.628	1041.568	1042.480	1043.588	1043.684	1044.592	1045.472	1047.096	1048.832	1049.260	1049.832	1049.616	1049.388	1049.144	1049.804	1049.584	1047.660	1041.336	1045.348	1047.300	1048.524	1049.680	1049.940	1050.716	1050.992	1052.460	1053.300	1053.840	1053.996	1054.088	1054.136	1054.540	1054.896	1053.964	1053.204	1052.732	1052.528	1052.412	1051.944	1053.720	1055.580	1043.788	1040.744	1035.748	1044.252	1048.552	1050.140	1050.028	1050.420	1051.272	1051.736	1052.336	1051.820	1045.380	1053.144	1053.380	1050.968	1055.936	1059.808	1059.976	1060.140	1060.232	1060.360	1060.304	1055.676	1055.132	1060.084	1060.760	1062.056	1064.740	1065.572	1066.296	1067.688	1069.196	1071.408	1072.272	1073.548	1074.800	1074.996	1076.188	1077.232	1078.084	1078.492	1077.900	1078.052	1077.400	1077.912	1078.680	1078.716	1078.872	1078.864	1077.944	1078.064	1077.744	1078.264	1080.752	1079.944	1078.316	1080.612	1058.460	1051.260	1065.704	1085.264	1096.784	1094.436	1087.376	1078.800	1035.596	1029.000	1026.932	1023.692	1018.020	1016.916	1022.248	1039.420	1050.528	1064.608	1069.092	1071.440	1071.036	1072.280	1074.040	1078.016	1078.288	1074.456	1076.216	1080.988	1083.056	1085.476	1090.508	1091.192	1086.768	1089.428	1091.480	1086.820	1085.660	1092.092	1091.204	1079.640	1059.060	1041.816	1036.188
1021.512	1021.708	1021.672	1020.892	1020.372	1021.492	1022.120	1022.676	1022.660	1022.968	1022.352	1022.464	1022.360	1022.896	1022.888	1022.984	1022.760	1022.532	1022.976	1022.544	1022.800	1023.024	1022.736	1022.416	1022.608	1022.992	1022.628	1022.196	1021.684	1021.968	1022.784	1022.388	1022.428	1022.600	1022.428	1022.436	1022.608	1022.584	1022.552	1022.456	1021.964	1022.244	1022.600	1023.152	1023.240	1023.876	1024.332	1024.588	1024.812	1024.548	1024.488	1024.272	1023.960	1024.848	1025.192	1025.024	1025.464	1025.292	1024.280	1023.408	1020.580	1017.016	1015.752	1016.316	1016.224	1015.296	1014.692	1013.860	1014.072	1014.016	1014.572	1014.912	1014.572	1013.680	1013.676	1013.660	1014.468	1015.648	1016.392	1016.264	1016.524	1018.204	1017.972	1019.080	1022.584	1003.360	998.000	1000.276	1001.160	999.688	999.472	999.044	1000.180	1000.984	999.956	999.768	999.872	999.820	999.796	999.600	999.252	999.100	1000.888	1000.664	1000.732	999.904	1000.024	1001.412	1000.232	1000.044	1000.596	1000.456	1001.400	1001.384	1001.560	1001.800	1002.460	1002.384	1002.524	1002.976	1004.548	1008.648	1008.388	1008.224	1007.432	1009.684	1019.588	1021.664	1024.492	1026.536	1027.840	1028.888	1030.788	1032.228	1030.036	1031.308	1031.512	1031.876	1032.500	1033.344	1034.020	1034.992	1035.004	1035.952	1036.492	1037.052	1036.940	1037.224	1037.816	1038.252	1038.452	1037.960	1038.132	1038.420	1039.092	1039.780	1040.180	1040.176	1040.868	1042.288	1042.560	1042.516	1043.548	1044.504	1044.612	1045.700	1046.996	1048.236	1048.564	1049.032	1048.856	1048.780	1048.388	1047.728	1046.960	1046.072	1039.996	1043.412	1046.788	1048.344	1049.020	1049.044	1049.804	1050.692	1052.368	1052.980	1053.492	1053.644	1053.668	1053.880	1054.052	1054.316	1053.376	1052.416	1052.036	1052.840	1053.352	1053.472	1056.048	1058.176	1057.660	1045.568	1033.124	1041.216	1046.968	1048.604	1047.720	1048.644	1049.524	1049.216	1048.320	1044.196	1039.672	1047.604	1043.124	1041.500	1050.960	1055.596	1056.688	1057.424	1057.572	1057.948	1053.964	1053.984	1056.368	1058.180	1059.592	1061.892	1063.152	1064.752	1065.704	1066.956	1068.788	1071.068	1072.140	1073.112	1074.060	1074.924	1076.332	1076.892	1077.844	1078.124	1078.640	1078.932	1078.232	1078.508	1078.880	1079.028	1078.948	1079.036	1077.892	1079.480	1079.672	1078.704	1081.500	1078.364	1076.252	1080.436	1058.248	1047.936	1063.560	1082.592	1095.264	1092.460	1083.336	1074.808	1036.200	1027.144	1025.224	1021.640	1019.040	1016.608	1022.312	1041.700	1059.632	1064.548	1069.820	1073.376	1072.416	1076.016	1078.008	1078.868	1077.504	1077.020	1078.408	1084.076	1086.872	1084.360	1084.620	1086.040	1085.420	1085.836	1086.736	1085.132	1090.560	1084.224	1064.344	1048.852	1041.288	1036.444	1032.956
1021.304	1020.572	1020.256	1020.508	1020.580	1021.712	1022.168	1022.744	1022.732	1022.288	1022.604	1022.572	1022.308	1021.964	1022.164	1022.404	1022.380	1021.760	1021.840	1022.512	1022.584	1022.388	1022.460	1021.864	1022.220	1022.528	1022.476	1021.628	1021.380	1021.428	1021.720	1021.664	1021.504	1021.868	1022.108	1022.200	1022.380	1022.652	1022.636	1022.396	1021.892	1022.488	1022.708	1022.976	1023.148	1023.388	1023.776	1024.116	1024.208	1024.048	1024.468	1024.560	1023.812	1024.376	1025.256	1025.416	1026.112	1025.024	1026.248	1024.188	1020.032	1017.008	1015.872	1016.028	1016.028	1015.176	1014.848	1013.592	1014.972	1015.328	1015.844	1015.832	1015.100	1014.128	1013.664	1014.756	1015.308	1016.276	1016.796	1016.480	1016.888	1016.388	1016.396	1016.504	1018.892	1000.152	997.452	1001.540	1000.392	999.416	1001.764	1001.224	1001.104	1000.556	999.912	999.368	999.488	999.640	999.816	1000.092	999.160	1000.064	1000.776	1000.660	999.928	1000.328	1005.656	1015.692	1025.172	1012.260	1002.020	1005.044	1000.912	1001.820	1001.972	1002.124	1001.984	1002.636	1003.580	1011.596	1018.644	1021.772	1016.440	1011.772	1011.084	1013.432	1019.464	1022.140	1024.020	1025.412	1027.668	1028.368	1028.536	1029.964	1029.620	1029.792	1030.924	1031.840	1032.244	1033.448	1034.732	1035.132	1035.728	1036.248	1036.724	1037.068	1037.668	1038.312	1038.724	1038.884	1038.872	1039.204	1038.940	1039.428	1039.616	1040.504	1040.864	1041.248	1041.464	1042.276	1042.084	1041.564	1042.976	1043.980	1044.448	1045.692	1046.268	1047.576	1047.872	1048.408	1048.312	1047.892	1047.732	1047.160	1046.224	1039.204	1037.476	1041.680	1044.072	1045.936	1046.988	1047.684	1048.888	1049.564	1052.076	1052.880	1053.116	1053.088	1053.396	1053.636	1053.664	1053.480	1052.676	1052.684	1052.508	1053.132	1053.728	1053.848	1055.668	1057.928	1058.208	1032.232	1032.216	1040.748	1046.764	1046.344	1041.980	1035.824	1035.600	1036.508	1037.484	1035.696	1035.800	1036.672	1037.612	1037.648	1040.020	1046.704	1047.312	1049.496	1050.948	1050.272	1049.828	1051.056	1053.628	1057.712	1059.280	1060.320	1062.248	1063.604	1064.564	1065.512	1066.820	1070.136	1071.440	1072.800	1073.904	1074.772	1075.660	1076.748	1077.640	1078.736	1078.812	1079.300	1079.744	1079.832	1079.588	1079.272	1079.252	1078.676	1077.820	1078.960	1078.604	1080.156	1082.612	1077.252	1077.052	1081.936	1056.604	1045.912	1061.996	1082.760	1095.940	1091.564	1081.960	1072.660	1033.308	1028.556	1026.108	1020.268	1017.732	1016.128	1020.024	1041.484	1057.776	1061.256	1065.944	1072.860	1074.708	1076.548	1079.632	1078.876	1078.884	1081.852	1083.608	1082.392	1086.296	1084.112	1081.748	1085.156	1088.740	1081.472	1080.500	1087.136	1082.364	1063.864	1043.888	1032.756	1033.104	1032.692	1032.392
1020.896	1020.192	1019.156	1019.604	1020.984	1021.176	1021.332	1021.972	1021.960	1021.964	1022.344	1022.452	1022.328	1021.788	1022.400	1022.596	1022.072	1021.600	1021.556	1021.932	1022.088	1021.976	1021.632	1021.664	1021.616	1021.412	1021.208	1021.696	1020.628	1021.072	1021.100	1020.864	1021.016	1021.204	1021.456	1021.564	1022.156	1022.276	1022.540	1022.788	1021.856	1022.396	1022.688	1022.780	1022.496	1022.720	1023.260	1023.760	1024.292	1024.568	1024.796	1024.896	1024.144	1024.436	1024.552	1024.656	1024.648	1024.032	1023.680	1020.476	1017.492	1016.588	1016.100	1016.440	1015.776	1015.224	1015.248	1015.856	1015.960	1015.556	1015.420	1015.296	1014.664	1013.992	1014.788	1015.768	1015.804	1015.320	1015.824	1016.604	1017.420	1016.660	1015.112	1016.188	1018.528	999.208	997.064	1001.592	999.284	1002.196	1000.496	1001.240	1002.264	1000.560	999.996	999.424	999.244	1000.268	1000.144	999.488	999.076	1000.340	1000.408	1000.512	1000.404	1001.404	1007.432	1018.180	1023.372	1021.264	1019.720	1022.240	1021.236	1016.984	1005.208	1004.208	1010.140	1017.972	1025.412	1034.976	1029.496	1027.320	1028.028	1026.024	1014.316	1013.012	1021.040	1025.108	1024.968	1025.772	1026.888	1027.812	1026.968	1027.584	1028.680	1029.660	1030.860	1032.152	1033.040	1033.928	1034.936	1035.692	1035.984	1036.480	1037.000	1037.312	1037.808	1038.196	1038.712	1038.980	1039.476	1039.824	1039.432	1039.812	1039.948	1040.448	1040.872	1041.308	1041.508	1042.252	1041.936	1041.964	1042.996	1044.040	1044.388	1044.960	1045.376	1046.348	1046.312	1046.720	1046.848	1047.636	1047.384	1046.236	1044.932	1039.880	1034.340	1038.336	1043.464	1044.816	1045.892	1047.428	1048.140	1048.884	1050.292	1051.608	1051.792	1051.864	1051.676	1052.756	1052.512	1052.336	1052.224	1052.428	1052.376	1053.388	1053.644	1053.848	1052.700	1057.448	1054.680	1032.404	1036.320	1038.452	1038.672	1037.444	1033.132	1032.364	1032.940	1033.148	1034.064	1034.864	1035.972	1037.160	1037.496	1038.148	1040.356	1042.508	1042.588	1042.924	1042.940	1043.224	1045.280	1046.600	1051.212	1054.744	1054.336	1057.804	1058.636	1059.568	1061.404	1061.460	1064.952	1067.204	1070.676	1071.848	1073.216	1074.024	1075.092	1076.268	1077.140	1078.636	1079.060	1079.312	1079.556	1079.828	1079.600	1079.292	1079.104	1077.972	1077.304	1076.968	1075.924	1076.788	1081.012	1078.776	1078.832	1083.716	1058.128	1044.976	1065.368	1087.588	1097.304	1094.388	1084.320	1074.936	1031.268	1028.544	1026.688	1019.408	1017.788	1016.716	1018.100	1035.916	1054.592	1057.720	1064.508	1073.312	1079.136	1078.224	1079.916	1078.816	1076.936	1080.800	1085.380	1083.100	1081.904	1081.704	1079.676	1083.592	1090.096	1086.608	1082.700	1074.996	1057.488	1039.528	1032.084	1031.660	1031.180	1030.544	1027.180
1020.456	1020.264	1019.108	1018.836	1020.240	1020.556	1020.940	1021.212	1021.436	1021.872	1021.920	1022.100	1022.196	1021.316	1022.048	1022.060	1021.368	1021.436	1021.364	1022.080	1022.128	1021.972	1021.612	1021.604	1021.572	1021.144	1020.872	1020.412	1019.092	1019.304	1019.120	1019.704	1020.076	1020.656	1020.928	1021.432	1021.964	1022.108	1022.304	1022.432	1022.128	1021.736	1022.144	1022.164	1022.260	1022.484	1022.952	1023.488	1023.904	1024.692	1024.772	1024.544	1023.720	1023.928	1023.312	1022.132	1021.288	1021.412	1020.968	1020.252	1016.980	1015.544	1016.348	1015.804	1015.288	1015.920	1016.160	1016.200	1016.084	1015.796	1015.944	1015.860	1015.008	1014.260	1015.012	1015.664	1015.888	1015.232	1016.352	1016.452	1016.684	1016.828	1015.352	1016.304	1019.868	1004.892	996.804	1000.072	1000.432	1000.240	1000.416	1001.032	1000.832	1000.848	1000.652	999.868	999.360	999.792	999.520	999.720	999.040	1000.220	1000.404	999.604	1002.116	1001.744	1007.128	1023.636	1027.028	1026.288	1024.148	1023.352	1021.564	1020.664	1019.636	1022.552	1022.088	1022.488	1024.616	1035.568	1034.700	1029.144	1032.680	1033.964	1028.988	1020.092	1013.272	1025.388	1019.620	1017.424	1018.280	1021.120	1022.448	1023.932	1028.168	1029.536	1031.124	1032.564	1033.588	1034.556	1035.356	1035.540	1036.544	1036.760	1037.192	1037.532	1038.144	1038.252	1038.416	1039.016	1039.772	1039.796	1039.452	1039.260	1039.620	1039.720	1040.032	1041.084	1041.656	1041.736	1042.200	1042.312	1042.700	1043.052	1044.132	1044.500	1044.688	1044.992	1044.948	1045.460	1045.440	1046.164	1046.376	1044.796	1043.332	1040.132	1033.384	1035.532	1040.712	1042.832	1044.224	1045.720	1046.740	1048.816	1049.420	1050.156	1050.336	1050.604	1050.408	1050.424	1050.996	1051.716	1050.980	1050.960	1051.480	1052.896	1054.500	1054.000	1053.520	1059.604	1059.148	1039.360	1031.480	1030.060	1030.304	1030.808	1031.032	1031.820	1033.028	1033.760	1035.036	1042.832	1049.968	1049.396	1047.976	1050.968	1052.592	1054.840	1048.504	1043.928	1044.428	1047.712	1050.168	1051.600	1051.076	1049.712	1047.620	1049.508	1051.896	1054.316	1057.432	1058.440	1061.720	1067.944	1069.852	1071.404	1072.912	1073.492	1074.588	1075.500	1076.300	1078.072	1078.984	1078.736	1078.932	1079.248	1079.252	1079.420	1078.956	1077.840	1076.928	1076.384	1075.388	1076.544	1080.816	1079.788	1081.280	1080.724	1057.236	1044.996	1063.420	1088.380	1098.612	1095.548	1085.928	1075.916	1033.360	1026.988	1027.832	1021.020	1017.768	1016.424	1017.072	1035.568	1057.076	1061.016	1067.004	1075.060	1080.672	1079.756	1077.200	1075.228	1072.876	1076.264	1082.564	1083.572	1081.864	1084.988	1086.500	1085.920	1092.164	1081.888	1066.540	1048.156	1036.048	1031.740	1029.948	1028.384	1029.384	1026.772	1032.000
1019.756	1019.392	1018.828	1016.052	1017.272	1019.424	1020.336	1019.852	1020.280	1021.072	1021.544	1021.304	1021.728	1021.008	1021.516	1021.524	1020.828	1020.732	1021.220	1021.372	1021.400	1021.336	1021.552	1021.680	1021.304	1021.012	1020.820	1020.584	1019.028	1018.636	1018.336	1018.836	1019.548	1020.064	1019.960	1019.844	1019.180	1020.088	1020.288	1020.712	1021.016	1020.544	1020.756	1021.144	1021.300	1021.700	1021.852	1022.676	1022.960	1023.556	1023.928	1023.528	1022.092	1022.236	1021.848	1020.884	1020.080	1019.540	1018.580	1018.848	1015.828	1015.536	1015.800	1015.476	1015.304	1015.548	1016.036	1016.052	1015.864	1015.804	1015.716	1015.696	1015.696	1015.048	1015.928	1015.728	1015.364	1015.204	1015.736	1015.232	1015.300	1015.620	1015.312	1017.004	1019.404	1018.836	998.236	997.252	999.872	1000.972	999.700	999.320	999.964	1000.756	1000.260	999.692	999.176	998.964	998.812	999.504	999.176	999.816	999.632	999.536	1002.792	1006.880	1014.272	1031.092	1035.368	1023.340	1021.296	1022.808	1023.332	1021.680	1021.564	1023.692	1025.028	1025.060	1026.084	1029.868	1031.692	1027.044	1030.656	1034.076	1029.168	1025.040	1021.484	1020.464	1021.960	1022.656	1022.196	1022.632	1024.368	1025.328	1029.884	1030.604	1032.216	1033.632	1034.596	1035.024	1035.808	1036.000	1036.140	1035.852	1035.872	1036.180	1036.676	1037.452	1037.832	1038.356	1038.944	1038.988	1039.020	1038.636	1038.948	1039.268	1039.640	1037.732	1040.064	1041.264	1041.400	1041.188	1041.652	1041.488	1042.156	1042.300	1042.804	1042.196	1041.864	1039.104	1039.492	1044.572	1044.120	1043.880	1042.448	1039.064	1034.956	1032.848	1038.380	1040.792	1043.104	1044.780	1046.460	1048.204	1048.752	1048.780	1049.380	1049.328	1049.180	1049.856	1050.568	1051.324	1051.100	1051.448	1051.132	1052.212	1055.904	1059.552	1059.184	1047.348	1054.200	1047.772	1038.800	1031.384	1029.640	1029.876	1029.984	1030.844	1039.700	1043.248	1037.896	1047.452	1054.600	1055.392	1056.088	1056.464	1057.052	1058.116	1061.376	1059.824	1058.128	1057.536	1058.524	1059.212	1054.800	1051.236	1049.892	1048.916	1048.448	1048.072	1050.216	1054.008	1059.924	1067.380	1069.376	1071.080	1072.316	1073.204	1073.812	1075.000	1076.136	1077.348	1078.344	1078.488	1078.576	1078.688	1078.820	1079.012	1078.956	1077.568	1076.640	1075.880	1075.028	1075.272	1079.684	1080.640	1082.032	1082.612	1060.204	1041.000	1062.940	1084.388	1095.880	1094.988	1088.776	1081.924	1036.920	1028.712	1027.740	1019.040	1017.552	1016.440	1017.088	1034.224	1056.256	1059.956	1066.984	1074.456	1078.680	1079.288	1076.788	1073.648	1070.576	1071.564	1077.048	1083.612	1085.012	1087.820	1088.572	1087.448	1075.568	1056.036	1040.752	1035.268	1031.448	1026.420	1023.560	1024.864	1025.436	1031.552	1046.072
1018.548	1018.324	1017.624	1014.980	1015.680	1017.844	1019.288	1018.580	1018.964	1020.096	1020.544	1020.448	1020.812	1020.820	1020.704	1020.496	1020.096	1019.688	1020.576	1020.832	1020.616	1021.004	1020.976	1021.096	1020.560	1019.956	1019.816	1019.400	1018.976	1018.312	1018.080	1017.984	1018.324	1018.188	1018.868	1019.004	1018.696	1019.292	1018.900	1019.540	1019.400	1017.532	1018.792	1020.168	1019.424	1020.460	1020.060	1020.440	1021.520	1021.232	1022.860	1022.216	1021.956	1021.744	1021.080	1019.768	1019.304	1018.124	1016.824	1015.824	1014.588	1014.184	1014.752	1014.688	1014.436	1014.260	1014.932	1015.060	1014.672	1014.084	1015.460	1015.604	1015.756	1015.576	1015.608	1015.648	1015.364	1015.036	1015.680	1015.696	1014.652	1014.612	1014.692	1016.892	1015.700	1018.476	1004.696	997.172	997.588	1000.880	999.284	999.192	1000.052	1000.292	1000.128	999.548	998.796	999.128	999.636	999.428	999.916	1000.248	999.744	999.912	1006.452	1014.332	1022.908	1036.160	1035.208	1023.680	1021.712	1022.308	1022.856	1022.492	1022.980	1023.096	1024.508	1026.932	1030.560	1029.848	1029.780	1028.768	1028.340	1031.120	1029.600	1027.404	1026.728	1026.980	1026.460	1025.304	1026.616	1027.028	1027.024	1028.224	1030.992	1031.248	1032.088	1033.148	1034.276	1033.620	1035.604	1036.196	1034.728	1034.504	1033.960	1034.048	1033.344	1035.224	1035.764	1034.992	1037.304	1036.228	1035.908	1035.780	1037.496	1037.784	1036.488	1035.320	1036.852	1036.544	1035.488	1035.552	1037.544	1036.156	1037.676	1038.760	1040.192	1041.260	1041.604	1037.840	1040.828	1044.284	1043.304	1042.680	1041.584	1039.052	1033.460	1031.720	1036.324	1039.944	1042.896	1044.436	1046.152	1047.140	1047.748	1047.620	1047.984	1048.236	1048.184	1048.896	1049.804	1051.264	1051.292	1051.876	1051.352	1053.972	1059.432	1057.572	1038.272	1029.636	1026.964	1027.352	1027.040	1027.948	1032.308	1039.908	1036.572	1043.108	1052.204	1054.324	1053.496	1055.664	1055.988	1057.076	1057.320	1057.464	1059.732	1063.468	1065.800	1064.748	1060.488	1059.520	1059.520	1060.588	1062.168	1052.636	1051.992	1050.896	1050.680	1051.356	1049.524	1049.412	1054.544	1066.704	1069.636	1070.468	1071.564	1072.440	1073.064	1074.076	1074.980	1076.664	1077.352	1077.944	1078.208	1078.352	1078.600	1078.644	1078.588	1077.208	1076.452	1075.800	1074.932	1075.468	1078.760	1080.688	1079.868	1083.196	1066.160	1037.560	1054.164	1081.872	1093.652	1092.960	1087.716	1063.264	1033.204	1028.352	1028.752	1023.044	1016.072	1015.716	1017.352	1034.456	1055.784	1061.924	1069.152	1075.152	1078.664	1079.720	1077.600	1075.572	1071.244	1069.844	1073.496	1080.800	1082.536	1082.532	1085.392	1085.740	1051.140	1036.920	1034.136	1030.996	1027.160	1022.964	1028.100	1034.224	1039.232	1050.488	1060.244
1017.212	1017.388	1016.640	1015.740	1014.256	1015.996	1014.976	1016.576	1015.640	1016.536	1016.580	1019.152	1019.416	1019.752	1020.192	1019.860	1018.968	1018.660	1019.536	1020.056	1019.936	1020.284	1020.560	1020.024	1019.304	1018.600	1018.236	1018.280	1017.828	1016.940	1016.800	1016.824	1016.964	1017.156	1017.044	1017.424	1017.084	1016.676	1017.684	1018.716	1018.532	1018.212	1018.692	1019.096	1018.400	1018.356	1018.864	1018.996	1019.016	1018.828	1018.916	1019.116	1023.172	1028.012	1024.868	1018.752	1017.236	1016.892	1016.576	1015.924	1012.668	1013.760	1014.052	1013.740	1014.096	1013.528	1013.880	1014.020	1012.460	1013.228	1014.368	1015.268	1016.012	1016.264	1016.028	1015.868	1015.448	1015.296	1015.360	1015.572	1015.096	1015.116	1015.772	1016.140	1016.168	1020.352	1010.496	998.356	997.140	1000.228	999.436	999.404	999.392	999.616	999.632	998.968	998.868	999.852	1001.072	1000.488	1000.736	1000.408	1000.176	1003.492	1015.684	1016.592	1018.236	1029.480	1033.652	1024.376	1022.036	1022.572	1023.096	1023.676	1024.176	1024.532	1024.916	1026.644	1032.832	1035.316	1034.524	1034.284	1031.336	1031.004	1030.676	1029.272	1029.104	1029.344	1029.264	1027.860	1029.416	1030.048	1030.612	1030.856	1032.292	1032.264	1032.784	1033.476	1033.756	1033.584	1034.344	1034.860	1035.708	1036.004	1035.752	1036.332	1035.564	1035.332	1035.876	1036.608	1035.160	1035.504	1037.508	1038.008	1039.292	1039.124	1038.276	1037.564	1035.560	1036.616	1035.936	1034.672	1035.280	1036.936	1039.740	1040.952	1041.540	1042.552	1042.140	1041.832	1043.036	1042.696	1041.460	1041.376	1039.948	1033.292	1027.960	1031.928	1037.084	1040.720	1042.272	1044.192	1045.432	1046.128	1046.440	1046.260	1046.280	1046.460	1047.416	1048.136	1049.632	1052.636	1053.852	1054.808	1056.168	1039.464	1034.232	1031.156	1025.016	1026.188	1027.784	1029.504	1030.716	1034.716	1040.324	1047.004	1050.016	1051.480	1053.012	1054.956	1056.632	1056.128	1057.704	1058.196	1058.248	1058.412	1059.584	1065.868	1064.996	1061.000	1059.580	1059.668	1060.024	1060.360	1069.724	1055.372	1052.232	1051.988	1051.300	1049.940	1049.972	1049.672	1063.228	1066.932	1068.244	1069.752	1071.136	1072.052	1072.544	1073.080	1073.796	1076.016	1076.288	1076.792	1077.568	1077.600	1078.108	1078.304	1078.084	1077.104	1076.144	1075.832	1075.628	1075.456	1077.724	1078.164	1078.564	1082.340	1071.388	1038.848	1046.788	1077.416	1092.256	1092.368	1086.680	1059.588	1030.568	1025.472	1026.492	1022.288	1015.540	1016.108	1017.424	1029.316	1052.768	1059.456	1069.156	1076.664	1076.684	1076.664	1074.724	1075.372	1072.064	1068.952	1071.552	1079.580	1084.296	1075.584	1065.088	1062.456	1032.924	1031.128	1027.648	1026.528	1022.424	1025.852	1031.912	1040.376	1053.968	1061.052	1065.948
1015.148	1015.548	1015.144	1014.536	1014.224	1015.544	1015.816	1013.912	1014.448	1016.300	1017.524	1017.116	1017.424	1017.664	1018.924	1019.032	1018.440	1017.912	1017.896	1019.088	1018.972	1019.080	1019.596	1018.920	1018.264	1017.756	1016.824	1016.584	1016.452	1016.084	1016.004	1015.612	1015.232	1015.360	1016.108	1015.820	1015.784	1015.640	1016.068	1017.156	1017.708	1017.660	1017.664	1018.160	1017.516	1017.028	1017.048	1016.480	1017.008	1017.824	1018.748	1020.532	1021.040	1024.052	1019.312	1015.344	1014.684	1013.864	1012.672	1012.928	1011.764	1012.208	1012.664	1012.796	1012.744	1013.044	1013.360	1013.560	1013.192	1013.368	1013.752	1015.452	1015.864	1015.944	1016.176	1015.880	1015.844	1015.244	1014.816	1015.112	1015.032	1015.460	1015.460	1014.628	1016.616	1019.000	1016.688	999.496	997.640	999.976	999.756	999.540	999.556	999.060	999.028	999.292	999.904	1000.376	1000.472	1000.444	1000.276	1000.156	999.540	1007.796	1019.884	1021.724	1023.212	1026.432	1031.920	1021.608	1022.296	1022.508	1022.832	1024.800	1024.936	1025.988	1027.968	1026.840	1032.844	1035.348	1033.800	1031.908	1031.540	1031.956	1031.404	1030.092	1030.480	1030.380	1030.400	1029.780	1030.616	1031.136	1031.616	1032.224	1033.028	1033.140	1033.208	1033.492	1033.272	1033.496	1034.400	1034.712	1035.336	1035.616	1035.736	1035.964	1036.172	1036.372	1035.892	1036.044	1036.104	1035.552	1038.120	1039.120	1039.528	1039.528	1039.368	1038.880	1037.800	1039.052	1038.420	1036.892	1038.568	1040.040	1041.144	1042.052	1043.172	1042.980	1042.924	1043.940	1045.056	1044.572	1046.328	1045.340	1043.056	1027.140	1029.500	1033.184	1037.968	1039.844	1041.396	1042.768	1043.824	1044.208	1044.492	1044.144	1044.988	1045.564	1046.368	1048.496	1046.360	1046.488	1045.404	1044.748	1036.356	1025.492	1025.104	1024.784	1025.064	1032.272	1033.632	1036.848	1039.480	1042.568	1044.956	1047.540	1050.640	1053.492	1056.392	1055.080	1056.080	1056.612	1057.064	1057.828	1058.196	1059.108	1059.484	1059.852	1059.784	1059.576	1060.136	1059.632	1059.680	1060.076	1072.936	1059.888	1052.548	1051.160	1050.536	1049.912	1051.776	1054.892	1063.416	1067.280	1067.544	1067.916	1069.780	1070.864	1071.588	1072.032	1073.980	1074.732	1075.980	1076.540	1076.884	1077.328	1077.360	1077.692	1077.820	1076.984	1076.264	1076.692	1077.420	1075.768	1075.804	1075.528	1076.892	1080.848	1070.952	1039.784	1049.068	1073.136	1089.752	1091.652	1086.436	1067.124	1035.404	1025.288	1027.720	1021.080	1014.912	1015.740	1016.484	1041.984	1050.536	1056.652	1062.256	1071.176	1079.956	1081.592	1080.176	1082.292	1073.016	1071.208	1072.628	1083.784	1083.708	1055.628	1037.088	1033.768	1021.560	1021.848	1021.760	1022.412	1024.376	1028.008	1040.220	1046.504	1062.084	1065.748	1067.800
1013.140	1012.924	1011.432	1014.424	1013.992	1014.812	1015.560	1014.856	1014.588	1014.372	1014.796	1015.072	1014.664	1015.328	1016.404	1018.144	1017.836	1017.424	1017.340	1017.644	1017.352	1017.328	1016.968	1016.488	1015.616	1014.696	1014.536	1015.208	1015.168	1014.508	1014.600	1014.344	1013.664	1012.256	1013.168	1014.268	1014.452	1014.964	1014.744	1015.640	1016.532	1016.276	1016.148	1016.940	1014.928	1014.676	1014.452	1014.084	1012.324	1013.772	1015.672	1016.524	1018.932	1015.116	1009.616	1009.720	1006.064	1004.668	1005.528	1008.792	1010.512	1011.308	1011.840	1012.664	1012.128	1010.088	1011.060	1011.656	1010.280	1010.440	1012.124	1014.380	1015.104	1015.128	1017.676	1020.288	1016.700	1015.520	1014.652	1014.960	1015.148	1015.228	1015.128	1016.044	1017.556	1017.052	1017.180	1011.368	997.604	998.424	999.784	999.564	999.440	998.964	999.180	1000.076	1000.316	1000.184	1000.064	1000.192	1000.516	1000.316	999.580	1008.372	1016.868	1022.280	1028.336	1027.576	1028.276	1021.816	1021.836	1023.168	1023.652	1024.136	1024.956	1026.352	1028.856	1026.188	1030.680	1030.768	1030.268	1030.992	1031.620	1031.892	1031.468	1031.200	1031.196	1031.336	1031.320	1031.384	1031.344	1031.952	1032.112	1032.728	1033.152	1033.116	1032.976	1032.948	1033.124	1033.620	1034.040	1034.372	1035.172	1035.444	1035.836	1036.476	1036.160	1036.456	1036.580	1036.836	1037.716	1038.276	1038.964	1039.236	1039.136	1039.244	1039.816	1039.856	1038.328	1038.584	1038.152	1040.040	1041.396	1041.452	1042.152	1042.828	1046.556	1044.596	1044.576	1046.788	1051.100	1048.584	1046.944	1045.328	1044.744	1025.416	1028.080	1034.432	1037.252	1039.144	1040.636	1041.396	1042.004	1042.620	1042.496	1042.156	1043.092	1043.860	1044.400	1047.944	1043.600	1023.900	1025.216	1023.152	1023.880	1024.340	1024.760	1025.796	1029.508	1034.516	1037.648	1040.416	1041.912	1045.156	1047.440	1049.036	1050.288	1054.544	1054.464	1054.380	1054.848	1056.280	1056.812	1057.824	1058.712	1059.356	1059.076	1058.692	1058.436	1058.552	1058.440	1058.260	1059.616	1059.624	1062.784	1058.744	1052.244	1051.272	1051.940	1054.124	1057.552	1060.080	1064.988	1066.340	1065.964	1067.060	1069.344	1070.088	1070.884	1071.544	1073.464	1074.384	1075.156	1075.840	1075.904	1076.476	1076.556	1076.992	1077.256	1076.724	1076.040	1076.500	1077.340	1076.160	1074.640	1075.252	1076.172	1080.744	1072.496	1040.896	1039.920	1068.976	1087.788	1091.484	1087.776	1073.532	1042.672	1026.592	1028.260	1023.704	1014.648	1015.928	1022.488	1042.116	1050.084	1054.016	1056.460	1064.504	1074.300	1078.080	1080.332	1079.824	1073.768	1070.768	1057.840	1029.176	1027.020	1024.488	1026.820	1023.544	1024.536	1025.300	1024.424	1025.064	1032.188	1042.608	1049.612	1055.220	1067.928	1071.948	1071.764
1012.656	1011.832	1011.036	1015.048	1014.460	1013.964	1013.384	1012.676	1013.360	1014.140	1013.784	1011.948	1010.088	1011.504	1014.412	1015.240	1015.716	1015.980	1016.608	1015.740	1015.320	1015.524	1014.948	1014.180	1012.588	1009.376	1008.028	1012.312	1012.828	1012.896	1013.344	1013.292	1012.128	1010.620	1010.368	1012.348	1011.980	1013.048	1013.316	1013.964	1013.732	1013.992	1012.636	1012.116	1012.072	1011.872	1010.816	1010.024	1006.232	1005.020	1006.268	1009.744	1013.892	1008.916	1005.016	1004.780	1004.680	1003.572	1004.420	1006.576	1009.772	1010.500	1011.388	1011.412	1010.400	1009.284	1009.216	1009.536	1009.008	1009.236	1009.348	1010.512	1012.180	1012.984	1013.956	1014.704	1014.156	1014.360	1013.344	1014.760	1015.452	1016.208	1015.724	1016.816	1020.652	1018.188	1017.828	1018.744	1003.828	996.260	998.220	999.392	999.000	998.728	999.336	999.648	1000.260	1000.352	1000.040	1000.376	1001.368	1000.088	999.268	1004.500	1013.696	1018.824	1027.312	1029.260	1022.516	1022.596	1022.824	1022.600	1022.748	1022.776	1024.196	1025.236	1026.964	1026.904	1029.368	1027.956	1028.924	1031.016	1031.872	1032.344	1031.940	1031.872	1031.932	1031.720	1031.592	1031.504	1031.840	1031.680	1032.476	1033.100	1033.124	1032.856	1032.292	1032.696	1032.428	1032.956	1033.336	1033.412	1035.160	1035.668	1036.208	1036.356	1036.168	1036.740	1037.248	1037.152	1037.624	1038.284	1038.600	1038.652	1038.692	1038.828	1038.964	1039.288	1039.116	1039.444	1039.008	1039.208	1040.988	1041.644	1041.940	1042.568	1044.228	1043.952	1043.536	1042.768	1045.128	1049.368	1049.256	1046.984	1025.900	1025.856	1031.556	1034.716	1037.060	1038.460	1039.672	1039.620	1040.012	1040.760	1040.440	1040.760	1041.652	1042.284	1044.332	1047.436	1030.092	1021.360	1020.940	1022.852	1023.120	1024.712	1024.948	1026.728	1030.824	1036.568	1039.592	1042.180	1044.568	1046.736	1048.372	1049.272	1049.916	1051.924	1053.388	1054.632	1055.872	1056.300	1056.788	1057.688	1058.420	1058.444	1057.496	1056.320	1053.276	1053.712	1057.604	1057.628	1055.624	1053.792	1055.476	1057.936	1056.600	1055.656	1056.936	1058.900	1059.268	1061.284	1064.420	1065.816	1068.104	1068.516	1069.816	1070.068	1070.368	1070.784	1072.328	1072.968	1074.368	1075.084	1075.272	1075.532	1076.044	1076.124	1076.152	1075.804	1075.320	1075.544	1075.936	1075.696	1074.068	1074.052	1075.288	1079.884	1066.396	1037.124	1041.584	1066.584	1085.520	1091.136	1088.220	1075.652	1047.460	1028.136	1028.228	1022.196	1013.824	1015.372	1024.264	1042.472	1050.296	1052.344	1054.600	1057.816	1067.708	1074.752	1077.948	1077.460	1066.368	1051.388	1034.096	1020.608	1019.324	1021.724	1022.268	1024.380	1033.456	1037.712	1040.508	1045.324	1043.584	1049.936	1055.388	1059.772	1071.800	1076.444	1076.780
1012.748	1011.840	1012.484	1013.568	1013.848	1013.292	1012.688	1012.144	1012.980	1012.196	1011.736	1011.924	1011.092	1010.488	1010.992	1011.400	1011.740	1011.904	1012.364	1012.252	1011.928	1011.748	1011.424	1009.132	1008.568	1008.076	1007.416	1009.528	1007.400	1009.164	1010.780	1011.280	1009.728	1008.048	1006.980	1009.892	1007.344	1007.528	1008.924	1008.692	1008.740	1009.884	1007.980	1010.136	1010.596	1008.836	1005.840	1006.232	1005.476	1005.208	1005.000	1005.444	1006.764	1005.640	1004.480	1005.992	1005.684	1005.796	1006.524	1007.816	1009.340	1010.484	1010.700	1010.700	1009.500	1009.092	1008.360	1007.500	1007.560	1008.568	1008.516	1009.664	1011.536	1011.088	1014.060	1014.768	1015.004	1014.752	1015.224	1015.132	1015.248	1014.160	1014.060	1012.824	1016.720	1017.724	1019.620	1017.344	1016.916	999.804	996.132	997.892	998.720	998.664	999.396	999.420	1000.088	1000.496	1000.244	1000.492	1001.532	999.176	998.860	1004.636	1012.204	1016.872	1024.292	1030.388	1026.216	1023.104	1023.404	1022.544	1021.968	1022.304	1022.524	1023.288	1024.632	1027.200	1028.376	1029.752	1029.464	1028.772	1030.852	1031.232	1031.268	1032.468	1031.512	1030.976	1029.584	1030.992	1032.060	1032.220	1032.948	1032.924	1032.876	1032.412	1031.564	1031.840	1031.748	1032.136	1032.580	1033.536	1034.924	1035.144	1035.248	1036.008	1036.476	1036.968	1037.200	1037.000	1037.508	1037.956	1038.068	1038.048	1037.996	1035.856	1037.008	1037.828	1035.520	1034.212	1031.672	1032.664	1038.200	1039.760	1041.200	1041.520	1043.048	1043.268	1043.456	1042.248	1041.744	1046.532	1049.280	1046.620	1024.988	1030.680	1033.064	1034.760	1036.036	1037.136	1037.676	1038.416	1038.772	1038.648	1038.436	1038.164	1040.476	1039.712	1032.372	1034.996	1023.236	1021.720	1022.248	1023.396	1026.292	1028.056	1031.180	1032.896	1035.380	1039.612	1042.560	1044.064	1044.884	1046.288	1047.772	1048.400	1049.564	1051.924	1053.080	1053.936	1054.968	1056.444	1057.048	1057.924	1058.484	1058.328	1058.836	1058.344	1057.924	1059.592	1060.508	1061.040	1060.828	1059.884	1061.148	1059.840	1059.340	1057.800	1055.508	1053.848	1053.796	1059.948	1065.300	1066.212	1067.828	1068.588	1069.432	1069.576	1069.604	1069.652	1071.012	1071.680	1072.828	1073.940	1074.816	1075.168	1075.492	1075.848	1075.152	1075.464	1075.092	1074.872	1074.960	1075.000	1073.740	1073.528	1075.116	1082.604	1065.372	1033.096	1039.536	1061.084	1082.276	1090.224	1087.528	1074.236	1045.976	1027.968	1026.844	1021.492	1013.708	1017.284	1024.788	1042.652	1049.576	1053.600	1057.580	1061.920	1067.396	1072.224	1075.832	1052.672	1038.744	1024.052	1019.968	1021.860	1022.692	1025.000	1027.084	1034.216	1037.776	1041.180	1043.984	1047.400	1050.256	1052.220	1057.164	1065.104	1072.236	1076.124	1078.184
1012.320	1011.224	1011.524	1011.412	1010.972	1012.168	1011.428	1010.296	1010.232	1009.960	1009.828	1010.804	1010.280	1010.636	1009.860	1009.428	1009.868	1010.880	1011.084	1012.164	1010.764	1010.528	1009.248	1008.420	1009.652	1009.944	1008.780	1007.872	1008.428	1008.684	1008.668	1009.432	1008.828	1008.880	1008.292	1007.816	1006.656	1005.568	1006.032	1007.260	1007.408	1005.980	1006.844	1007.924	1008.156	1007.652	1007.636	1005.896	1004.820	1004.620	1004.796	1003.640	1004.252	1004.048	1004.076	1004.488	1004.236	1005.028	1006.672	1007.756	1009.372	1009.548	1009.088	1008.816	1007.244	1006.524	1006.008	1004.000	1005.216	1007.300	1008.272	1008.568	1009.784	1011.176	1014.448	1017.928	1018.200	1016.868	1018.876	1019.400	1017.928	1015.536	1013.732	1012.700	1015.396	1017.052	1018.908	1017.992	1017.852	1015.412	1002.280	996.984	997.408	1001.484	1002.660	1004.336	1000.632	1000.568	1000.840	1000.344	1004.532	999.292	1000.768	1010.192	1015.272	1016.376	1024.436	1029.740	1027.892	1024.740	1023.044	1022.732	1021.860	1022.076	1021.792	1022.940	1025.220	1027.392	1028.136	1029.372	1029.764	1028.896	1029.288	1029.080	1028.592	1029.864	1028.856	1028.752	1028.652	1030.696	1031.568	1031.640	1032.172	1032.180	1032.304	1032.096	1031.836	1032.552	1032.820	1032.824	1032.776	1033.864	1034.656	1034.136	1034.736	1036.132	1036.492	1036.916	1036.496	1036.576	1037.380	1037.796	1037.652	1037.684	1037.760	1037.040	1036.012	1035.400	1028.588	1028.000	1027.356	1027.624	1036.660	1039.108	1040.508	1040.864	1042.124	1043.320	1045.568	1046.240	1048.540	1049.328	1049.592	1034.644	1026.760	1030.448	1031.424	1033.948	1035.188	1036.464	1037.064	1037.552	1037.184	1035.900	1034.300	1029.476	1035.944	1031.564	1021.676	1021.352	1022.504	1022.604	1024.956	1027.000	1030.396	1032.564	1034.328	1035.924	1037.368	1041.156	1042.720	1042.864	1043.996	1045.304	1046.740	1047.764	1048.524	1052.700	1053.732	1054.708	1055.952	1057.096	1057.268	1057.996	1058.480	1059.868	1060.044	1060.460	1060.816	1061.572	1061.216	1061.528	1061.440	1061.660	1063.032	1062.200	1061.336	1060.692	1060.824	1055.552	1058.968	1062.524	1065.720	1066.612	1067.236	1067.844	1067.416	1066.052	1064.308	1068.096	1069.544	1070.708	1071.736	1072.968	1074.076	1074.700	1074.932	1075.400	1075.076	1075.404	1075.192	1074.444	1074.152	1074.588	1074.028	1073.744	1079.720	1083.276	1075.452	1046.448	1027.516	1045.596	1077.860	1087.876	1087.244	1074.744	1043.988	1026.752	1023.948	1020.144	1015.944	1020.480	1026.408	1041.772	1049.476	1052.436	1055.480	1065.540	1071.528	1068.260	1066.580	1031.468	1023.692	1018.756	1020.864	1024.300	1025.304	1028.004	1031.096	1036.980	1041.396	1043.920	1046.616	1048.556	1049.828	1052.632	1056.476	1071.552	1075.048	1076.468	1080.892
